# .PCD v.7 - Point Cloud Data file format
FIELDS x y z rgb imX imY
SIZE 4 4 4 4 4 4
TYPE F F F F F F
COUNT 1 1 1 1 1 1
WIDTH 839
HEIGHT 1
VIEWPOINT 0 0 0 1 0 0 0
POINTS 839
DATA ascii
0.027899038 0.66299999 -0.033711337 1.7694919e-38 344 269
0.029061496 0.66299999 -0.033711337 1.7602722e-38 345 269
0.030223956 0.66299999 -0.033711337 1.7695973e-38 346 269
0.031386416 0.66299999 -0.033711337 1.7603776e-38 347 269
0.032548878 0.66299999 -0.033711337 1.7512663e-38 348 269
0.033762183 0.66399997 -0.033762183 1.7696694e-38 349 269
0.0349264 0.66399997 -0.033762183 1.7788537e-38 350 269
0.03619932 0.66600001 -0.03386388 1.7696341e-38 351 269
0.037367038 0.66600001 -0.03386388 1.787929e-38 352 269
0.03853476 0.66600001 -0.03386388 1.787929e-38 353 269
0.039702479 0.66600001 -0.03386388 1.787892e-38 354 269
0.040870197 0.66600001 -0.03386388 1.7786725e-38 355 269
0.042101037 0.667 -0.033914726 1.7694524e-38 356 269
0.04327051 0.667 -0.033914726 1.7602328e-38 357 269
0.044439986 0.667 -0.033914726 1.7418297e-38 358 269
0.0458146 0.67000002 -0.034067266 1.7233904e-38 359 269
0.047059465 0.671 -0.034118112 1.7050236e-38 360 269
0.048235953 0.671 -0.034118112 1.695804e-38 361 269
0.049486078 0.67199999 -0.034168959 1.6865857e-38 362 269
0.050664317 0.67199999 -0.034168959 1.6773662e-38 363 269
0.051842555 0.67199999 -0.034168959 1.6497448e-38 364 269
0.053020798 0.67199999 -0.034168959 1.6497448e-38 365 269
0.054360349 0.67400002 -0.034270655 1.6129035e-38 366 269
0.0556245 0.67500001 -0.034321502 1.6129035e-38 367 269
0.056808002 0.67500001 -0.034321502 1.5761333e-38 368 269
0.058077414 0.676 -0.034372345 1.5668779e-38 369 269
0.059262663 0.676 -0.034372345 1.5576233e-38 370 269
0.06044792 0.676 -0.034372345 1.5392201e-38 371 269
0.061906695 0.67900002 -0.034524884 1.520782e-38 372 269
0.063190132 0.68000001 -0.034575731 1.5115624e-38 373 269
0.064382397 0.68000001 -0.034575731 1.4748294e-38 374 269
0.065767527 0.68199998 -0.034677424 1.4563901e-38 375 269
0.0669633 0.68199998 -0.034677424 1.4196207e-38 376 269
0.068259016 0.68300003 -0.034728274 1.4012176e-38 377 269
0.069761619 0.68599999 -0.034880809 1.3828148e-38 378 269
0.070964411 0.68599999 -0.034880809 1.3551921e-38 379 269
0.07227239 0.68699998 -0.034931656 1.3366819e-38 380 269
0.0737978 0.69 -0.035084199 1.3090232e-38 381 269
0.075442426 0.69400001 -0.035287585 1.2996614e-38 382 269
0.076880157 0.69599998 -0.035389278 1.2904417e-38 383 269
0.078212693 0.69700003 -0.035440128 1.2720766e-38 384 269
0.079434767 0.69700003 -0.035440128 1.2905157e-38 385 269
0.080541112 0.69599998 -0.035389278 1.3091387e-38 386 269
0.081761435 0.69599998 -0.035389278 1.410554e-38 387 269
0.021953486 0.65899998 -0.034663398 1.7053969e-38 339 270
0.023108931 0.65899998 -0.034663398 1.7512719e-38 340 270
0.024374841 0.662 -0.034821201 1.7143578e-38 341 270
0.025535546 0.662 -0.034821201 1.7513032e-38 342 270
0.026696252 0.662 -0.034821201 1.7697423e-38 343 270
0.027856959 0.662 -0.034821201 1.7696694e-38 344 270
0.029017664 0.662 -0.034821201 1.7512663e-38 345 270
0.030223956 0.66299999 -0.034873798 1.7788877e-38 346 270
0.031339079 0.662 -0.034821201 1.7788877e-38 347 270
0.032499783 0.662 -0.034821201 1.7880723e-38 348 270
0.033711337 0.66299999 -0.034873798 1.8064754e-38 349 270
0.034873798 0.66299999 -0.034873798 1.7880369e-38 350 270
0.036036257 0.66299999 -0.034873798 1.7880369e-38 351 270
0.037254825 0.66399997 -0.0349264 1.806296e-38 352 270
0.038419038 0.66399997 -0.0349264 1.806296e-38 353 270
0.039583251 0.66399997 -0.0349264 1.8062233e-38 354 270
0.040870197 0.66600001 -0.035031598 1.8062233e-38 355 270
0.042037919 0.66600001 -0.035031598 1.7878202e-38 356 270
0.043205637 0.66600001 -0.035031598 1.7786006e-38 357 270
0.04437336 0.66600001 -0.035031598 1.7602331e-38 358 270
0.045609459 0.667 -0.035084199 1.7325744e-38 359 270
0.046778932 0.667 -0.035084199 1.7050959e-38 360 270
0.048164066 0.67000002 -0.035241999 1.6958762e-38 361 270
0.049338799 0.67000002 -0.035241999 1.6774741e-38 362 270
0.050588924 0.671 -0.0352946 1.6682545e-38 363 270
0.051765412 0.671 -0.0352946 1.6589643e-38 364 270
0.052941896 0.671 -0.0352946 1.6497448e-38 365 270
0.054118387 0.671 -0.0352946 1.6129038e-38 366 270
0.055377278 0.67199999 -0.035347197 1.6129038e-38 367 270
0.056723841 0.67400002 -0.035452399 1.57617e-38 368 270
0.057991501 0.67500001 -0.035505001 1.5577668e-38 369 270
0.059262663 0.676 -0.035557602 1.5485119e-38 370 270
0.06044792 0.676 -0.035557602 1.5392564e-38 371 270
0.061815511 0.67799997 -0.0356628 1.4841198e-38 372 270
0.063097201 0.67900002 -0.035715401 1.4656447e-38 373 270
0.064382397 0.68000001 -0.035767999 1.4564268e-38 374 270
0.065574668 0.68000001 -0.035767999 1.428804e-38 375 270
0.0669633 0.68199998 -0.035873197 1.3919625e-38 376 270
0.068159081 0.68199998 -0.035873197 1.3827429e-38 377 270
0.06955824 0.68400002 -0.035978399 1.3459368e-38 378 270
0.070757523 0.68400002 -0.035978399 1.3274977e-38 379 270
0.072167195 0.68599999 -0.036083598 1.3181712e-38 380 270
0.073583893 0.68800002 -0.0361888 1.2904765e-38 381 270
0.075333714 0.69300002 -0.036451802 1.2628551e-38 382 270
0.076990619 0.69700003 -0.036662199 1.2628551e-38 383 270
0.078212693 0.69700003 -0.036662199 1.2444902e-38 384 270
0.079434767 0.69700003 -0.036662199 1.2905879e-38 385 270
0.080541112 0.69599998 -0.036609598 1.2630776e-38 386 270
0.081761435 0.69599998 -0.036609598 1.3460895e-38 387 270
0.019612785 0.65799999 -0.035764489 1.6868475e-38 337 271
0.02076648 0.65799999 -0.035764489 1.723648e-38 338 271
0.021953486 0.65899998 -0.035818845 1.7420871e-38 339 271
0.023108931 0.65899998 -0.035818845 1.7880735e-38 340 271
0.024264378 0.65899998 -0.035818845 1.778854e-38 341 271
0.025419824 0.65899998 -0.035818845 1.7880717e-38 342 271
0.026655925 0.66100001 -0.035927553 1.7880717e-38 343 271
0.02781488 0.66100001 -0.035927553 1.8064751e-38 344 271
0.028973831 0.66100001 -0.035927553 1.7788524e-38 345 271
0.030178372 0.662 -0.035981905 1.8156228e-38 346 271
0.031339079 0.662 -0.035981905 1.8064032e-38 347 271
0.032499783 0.662 -0.035981905 1.8156233e-38 348 271
0.033660494 0.662 -0.035981905 1.8156233e-38 349 271
0.034821201 0.662 -0.035981905 1.8063329e-38 350 271
0.035981905 0.662 -0.035981905 1.7971133e-38 351 271
0.037198719 0.66299999 -0.036036257 1.7971486e-38 352 271
0.038419038 0.66399997 -0.036090612 1.787929e-38 353 271
0.039583251 0.66399997 -0.036090612 1.7878567e-38 354 271
0.040747464 0.66399997 -0.036090612 1.7878567e-38 355 271
0.041911677 0.66399997 -0.036090612 1.7878567e-38 356 271
0.043205637 0.66600001 -0.03619932 1.7786372e-38 357 271
0.04437336 0.66600001 -0.03619932 1.7694526e-38 358 271
0.045541082 0.66600001 -0.03619932 1.74183e-38 359 271
0.046708796 0.66600001 -0.03619932 1.7235348e-38 360 271
0.048020288 0.66799998 -0.036308024 1.7050955e-38 361 271
0.04919152 0.66799998 -0.036308024 1.6683264e-38 362 271
0.050513536 0.67000002 -0.036416732 1.6591068e-38 363 271
0.051688269 0.67000002 -0.036416732 1.6222305e-38 364 271
0.052863002 0.67000002 -0.036416732 1.6222305e-38 365 271
0.054037735 0.67000002 -0.036416732 1.5946094e-38 366 271
0.055212468 0.67000002 -0.036416732 1.585354e-38 367 271
0.056471359 0.671 -0.036471087 1.5761344e-38 368 271
0.057991501 0.67500001 -0.036688499 1.5577312e-38 369 271
0.059175 0.67500001 -0.036688499 1.5392564e-38 370 271
0.06044792 0.676 -0.036742851 1.5300369e-38 371 271
0.061815511 0.67799997 -0.036851559 1.4748647e-38 372 271
0.063097201 0.67900002 -0.036905911 1.4564254e-38 373 271
0.064382397 0.68000001 -0.036960267 1.4196563e-38 374 271
0.065574668 0.68000001 -0.036960267 1.4012173e-38 375 271
0.066766933 0.68000001 -0.036960267 1.3735955e-38 376 271
0.068159081 0.68199998 -0.037068974 1.3459368e-38 377 271
0.069456547 0.68300003 -0.037123326 1.327498e-38 378 271
0.070654072 0.68300003 -0.037123326 1.2906198e-38 379 271
0.071956798 0.68400002 -0.037177678 1.2904768e-38 380 271
0.073583893 0.68800002 -0.037395094 1.2812572e-38 381 271
0.075333714 0.69300002 -0.037666857 1.2353043e-38 382 271
0.076990619 0.69700003 -0.037884273 1.2445239e-38 383 271
0.078212693 0.69700003 -0.037884273 1.2444908e-38 384 271
0.079434767 0.69700003 -0.037884273 1.2721495e-38 385 271
0.080656841 0.69700003 -0.037884273 1.1895012e-38 386 271
0.081878915 0.69700003 -0.037884273 1.2448185e-38 387 271
0.018459093 0.65799999 -0.036918186 1.7604932e-38 336 272
0.019612785 0.65799999 -0.036918186 1.7512736e-38 337 272
0.02076648 0.65799999 -0.036918186 1.7697088e-38 338 272
0.021920172 0.65799999 -0.036918186 1.7697088e-38 339 272
0.023073865 0.65799999 -0.036918186 1.8156596e-38 340 272
0.02422756 0.65799999 -0.036918186 1.8156596e-38 341 272
0.025419824 0.65899998 -0.036974292 1.8156947e-38 342 272
0.026575271 0.65899998 -0.036974292 1.8156947e-38 343 272
0.02781488 0.66100001 -0.037086505 1.8156952e-38 344 272
0.028973831 0.66100001 -0.037086505 1.8064398e-38 345 272
0.030132787 0.66100001 -0.037086505 1.8064754e-38 346 272
0.031291738 0.66100001 -0.037086505 1.8064754e-38 347 272
0.032450691 0.66100001 -0.037086505 1.8339899e-38 348 272
0.033609647 0.66100001 -0.037086505 1.8247344e-38 349 272
0.0347686 0.66100001 -0.037086505 1.8062966e-38 350 272
0.035927553 0.66100001 -0.037086505 1.8062966e-38 351 272
0.037086505 0.66100001 -0.037086505 1.7970767e-38 352 272
0.038361177 0.66299999 -0.037198719 1.7970767e-38 353 272
0.039583251 0.66399997 -0.037254825 1.7694902e-38 354 272
0.040747464 0.66399997 -0.037254825 1.7878934e-38 355 272
0.041911677 0.66399997 -0.037254825 1.7787468e-38 356 272
0.043075889 0.66399997 -0.037254825 1.7695272e-38 357 272
0.044240102 0.66399997 -0.037254825 1.7511957e-38 358 272
0.045541082 0.66600001 -0.037367038 1.7327564e-38 359 272
0.046708796 0.66600001 -0.037367038 1.7236085e-38 360 272
0.047876518 0.66600001 -0.037367038 1.6959858e-38 361 272
0.04904424 0.66600001 -0.037367038 1.6592517e-38 362 272
0.050211959 0.66600001 -0.037367038 1.6223735e-38 363 272
0.051379681 0.66600001 -0.037367038 1.5946088e-38 364 272
0.052705199 0.66799998 -0.037479252 1.6038643e-38 365 272
0.054037735 0.67000002 -0.037591465 1.5670952e-38 366 272
0.055212468 0.67000002 -0.037591465 1.5670952e-38 367 272
0.056387197 0.67000002 -0.037591465 1.5670596e-38 368 272
0.057905588 0.67400002 -0.037815895 1.5394369e-38 369 272
0.059175 0.67500001 -0.037871998 1.5209988e-38 370 272
0.06044792 0.676 -0.037928104 1.4841564e-38 371 272
0.061815511 0.67799997 -0.038040318 1.4473149e-38 372 272
0.063004278 0.67799997 -0.038040318 1.4012529e-38 373 272
0.064287722 0.67900002 -0.038096428 1.3919625e-38 374 272
0.065574668 0.68000001 -0.038152531 1.3735233e-38 375 272
0.066766933 0.68000001 -0.038152531 1.3367172e-38 376 272
0.067959204 0.68000001 -0.038152531 1.3274977e-38 377 272
0.069354847 0.68199998 -0.038264744 1.3273179e-38 378 272
0.070654072 0.68300003 -0.038320854 1.2996951e-38 379 272
0.071851604 0.68300003 -0.038320854 1.2628538e-38 380 272
0.073476933 0.68699998 -0.038545277 1.2536343e-38 381 272
0.075116299 0.69099998 -0.038769703 1.2260847e-38 382 272
0.076990619 0.69700003 -0.039106347 1.2445239e-38 383 272
0.078212693 0.69700003 -0.039106347 1.2351633e-38 384 272
0.079434767 0.69700003 -0.039106347 1.2536385e-38 385 272
0.080656841 0.69700003 -0.039106347 1.1982891e-38 386 272
0.081878915 0.69700003 -0.039106347 1.2536065e-38 387 272
0.016078066 0.65499997 -0.037898298 1.7235408e-38 334 273
0.017226499 0.65499997 -0.037898298 1.7235408e-38 335 273
0.01843104 0.65700001 -0.038014017 1.8156246e-38 336 273
0.019582979 0.65700001 -0.038014017 1.8340639e-38 337 273
0.020734919 0.65700001 -0.038014017 1.8340992e-38 338 273
0.021886859 0.65700001 -0.038014017 1.8248795e-38 339 273
0.023038799 0.65700001 -0.038014017 1.8248776e-38 340 273
0.024190739 0.65700001 -0.038014017 1.8248776e-38 341 273
0.025381252 0.65799999 -0.038071878 1.8432442e-38 342 273
0.026534945 0.65799999 -0.038071878 1.8340246e-38 343 273
0.027730718 0.65899998 -0.038129739 1.8248779e-38 344 273
0.028886165 0.65899998 -0.038129739 1.8156584e-38 345 273
0.030041611 0.65899998 -0.038129739 1.8339545e-38 346 273
0.031197058 0.65899998 -0.038129739 1.8339545e-38 347 273
0.032352503 0.65899998 -0.038129739 1.7880013e-38 348 273
0.033507951 0.65899998 -0.038129739 1.7787818e-38 349 273
0.034663398 0.65899998 -0.038129739 1.8062612e-38 350 273
0.035764489 0.65799999 -0.038071878 1.7970417e-38 351 273
0.036918186 0.65799999 -0.038071878 1.7970414e-38 352 273
0.038129739 0.65899998 -0.038129739 1.7970414e-38 353 273
0.039404415 0.66100001 -0.038245458 1.7878937e-38 354 273
0.040686097 0.66299999 -0.038361177 1.7878937e-38 355 273
0.041848559 0.66299999 -0.038361177 1.7787823e-38 356 273
0.043075889 0.66399997 -0.038419038 1.7695269e-38 357 273
0.044240102 0.66399997 -0.038419038 1.7512307e-38 358 273
0.045404319 0.66399997 -0.038419038 1.742011e-38 359 273
0.046568532 0.66399997 -0.038419038 1.7236082e-38 360 273
0.047732744 0.66399997 -0.038419038 1.7236082e-38 361 273
0.04904424 0.66600001 -0.03853476 1.6866953e-38 362 273
0.050211959 0.66600001 -0.03853476 1.6590365e-38 363 273
0.051379681 0.66600001 -0.03853476 1.6037921e-38 364 273
0.052547399 0.66600001 -0.03853476 1.6037921e-38 365 273
0.053876422 0.66799998 -0.038650475 1.5763148e-38 366 273
0.05504765 0.66799998 -0.038650475 1.5763148e-38 367 273
0.056387197 0.67000002 -0.038766202 1.5670596e-38 368 273
0.057647847 0.671 -0.038824059 1.5486565e-38 369 273
0.059087332 0.67400002 -0.038997639 1.5302172e-38 370 273
0.060358498 0.67500001 -0.039055496 1.5025227e-38 371 273
0.061633173 0.676 -0.039113361 1.4564618e-38 372 273
0.062818423 0.676 -0.039113361 1.4196195e-38 373 273
0.06419304 0.67799997 -0.039229076 1.3735952e-38 374 273
0.065478235 0.67900002 -0.039286941 1.3459724e-38 375 273
0.066766933 0.68000001 -0.039344799 1.3091311e-38 376 273
0.067959204 0.68000001 -0.039344799 1.2814725e-38 377 273
0.069354847 0.68199998 -0.039460517 1.2721453e-38 378 273
0.070654072 0.68300003 -0.039518382 1.2537061e-38 379 273
0.071851604 0.68300003 -0.039518382 1.2535987e-38 380 273
0.073476933 0.68699998 -0.039749816 1.2535987e-38 381 273
0.075116299 0.69099998 -0.039981257 1.2260491e-38 382 273
0.076990619 0.69700003 -0.040328421 1.2353046e-38 383 273
0.078100473 0.69599998 -0.040270556 1.180098e-38 384 273
0.079320796 0.69599998 -0.040270556 1.1708785e-38 385 273
0.080656841 0.69700003 -0.040328421 1.0788666e-38 386 273
0.014815666 0.64999998 -0.038748663 1.7604216e-38 333 274
0.016078066 0.65499997 -0.039046731 1.7789634e-38 334 274
0.017226499 0.65499997 -0.039046731 1.7881831e-38 335 274
0.018374931 0.65499997 -0.039046731 1.8525739e-38 336 274
0.019523365 0.65499997 -0.039046731 1.8433543e-38 337 274
0.020671798 0.65499997 -0.039046731 1.8341708e-38 338 274
0.021820232 0.65499997 -0.039046731 1.8341708e-38 339 274
0.022968665 0.65499997 -0.039046731 1.8341696e-38 340 274
0.024117097 0.65499997 -0.039046731 1.8341696e-38 341 274
0.025265532 0.65499997 -0.039046731 1.8340972e-38 342 274
0.026494619 0.65700001 -0.039165959 1.8248776e-38 343 274
0.027688639 0.65799999 -0.039225571 1.8248782e-38 344 274
0.028842334 0.65799999 -0.039225571 1.8156228e-38 345 274
0.029996024 0.65799999 -0.039225571 1.833919e-38 346 274
0.031149717 0.65799999 -0.039225571 1.7970767e-38 347 274
0.032303412 0.65799999 -0.039225571 1.806261e-38 348 274
0.033457108 0.65799999 -0.039225571 1.806261e-38 349 274
0.034610797 0.65799999 -0.039225571 1.787894e-38 350 274
0.035764489 0.65799999 -0.039225571 1.787894e-38 351 274
0.036918186 0.65799999 -0.039225571 1.7878934e-38 352 274
0.038071878 0.65799999 -0.039225571 1.7878934e-38 353 274
0.039285187 0.65899998 -0.039285187 1.7787821e-38 354 274
0.040563367 0.66100001 -0.039404415 1.7787821e-38 355 274
0.041785441 0.662 -0.039464023 1.7604877e-38 356 274
0.043011017 0.66299999 -0.039523639 1.7604877e-38 357 274
0.044173479 0.66299999 -0.039523639 1.7605243e-38 358 274
0.045335937 0.66299999 -0.039523639 1.7513047e-38 359 274
0.046568532 0.66399997 -0.039583251 1.7054587e-38 360 274
0.047732744 0.66399997 -0.039583251 1.677836e-38 361 274
0.048896957 0.66399997 -0.039583251 1.6960949e-38 362 274
0.050211959 0.66600001 -0.039702479 1.6592167e-38 363 274
0.051379681 0.66600001 -0.039702479 1.6131207e-38 364 274
0.052547399 0.66600001 -0.039702479 1.6038653e-38 365 274
0.053876422 0.66799998 -0.039821707 1.5671325e-38 366 274
0.05504765 0.66799998 -0.039821707 1.5671325e-38 367 274
0.056218877 0.66799998 -0.039821707 1.5579851e-38 368 274
0.057647847 0.671 -0.040000543 1.5303265e-38 369 274
0.059087332 0.67400002 -0.040179387 1.5026322e-38 370 274
0.06026908 0.67400002 -0.040179387 1.4657899e-38 371 274
0.061633173 0.676 -0.040298611 1.4381677e-38 372 274
0.062818423 0.676 -0.040298611 1.3828504e-38 373 274
0.06419304 0.67799997 -0.040417835 1.3459371e-38 374 274
0.065478235 0.67900002 -0.040477451 1.3182784e-38 375 274
0.066766933 0.68000001 -0.040537067 1.3089511e-38 376 274
0.067959204 0.68000001 -0.040537067 1.2812922e-38 377 274
0.069354847 0.68199998 -0.040656291 1.2628891e-38 378 274
0.070550621 0.68199998 -0.040656291 1.2536696e-38 379 274
0.071851604 0.68300003 -0.040715907 1.2444863e-38 380 274
0.073476933 0.68699998 -0.040954359 1.2444863e-38 381 274
0.075116299 0.69099998 -0.041192811 1.2077535e-38 382 274
0.076327853 0.69099998 -0.041192811 1.1984981e-38 383 274
0.078100473 0.69599998 -0.041490879 1.1340728e-38 384 274
0.079320796 0.69599998 -0.041490879 1.1248531e-38 385 274
0.0091033066 0.64899999 -0.039826967 1.7236932e-38 328 275
0.010256999 0.64999998 -0.039888334 1.7144735e-38 329 275
0.011396666 0.64999998 -0.039888334 1.7512383e-38 330 275
0.012536332 0.64999998 -0.039888334 1.7143959e-38 331 275
0.013675999 0.64999998 -0.039888334 1.8063347e-38 332 275
0.014815666 0.64999998 -0.039888334 1.8247738e-38 333 275
0.016004426 0.65200001 -0.040011063 1.8248792e-38 334 275
0.017147599 0.65200001 -0.040011063 1.8340989e-38 335 275
0.018374931 0.65499997 -0.040195163 1.8524653e-38 336 275
0.019523365 0.65499997 -0.040195163 1.8617209e-38 337 275
0.020671798 0.65499997 -0.040195163 1.8616853e-38 338 275
0.021820232 0.65499997 -0.040195163 1.8524657e-38 339 275
0.022968665 0.65499997 -0.040195163 1.8616486e-38 340 275
0.024117097 0.65499997 -0.040195163 1.852429e-38 341 275
0.025265532 0.65499997 -0.040195163 1.8524643e-38 342 275
0.026413966 0.65499997 -0.040195163 1.8524643e-38 343 275
0.027646558 0.65700001 -0.0403179 1.8339899e-38 344 275
0.028798498 0.65700001 -0.0403179 1.8247344e-38 345 275
0.02995044 0.65700001 -0.0403179 1.8063679e-38 346 275
0.03110238 0.65700001 -0.0403179 1.7971483e-38 347 275
0.03225432 0.65700001 -0.0403179 1.797113e-38 348 275
0.033406258 0.65700001 -0.0403179 1.797113e-38 349 275
0.034558199 0.65700001 -0.0403179 1.7878937e-38 350 275
0.035710141 0.65700001 -0.0403179 1.7878937e-38 351 275
0.036862079 0.65700001 -0.0403179 1.7878934e-38 352 275
0.038014017 0.65700001 -0.0403179 1.797113e-38 353 275
0.039165959 0.65700001 -0.0403179 1.7696341e-38 354 275
0.040379263 0.65799999 -0.040379263 1.7788537e-38 355 275
0.041596077 0.65899998 -0.04044063 1.7513041e-38 356 275
0.042751525 0.65899998 -0.04044063 1.7605237e-38 357 275
0.044040225 0.66100001 -0.040563367 1.7330098e-38 358 275
0.04526756 0.662 -0.04062473 1.7330098e-38 359 275
0.046428263 0.662 -0.04062473 1.7146783e-38 360 275
0.047660857 0.66299999 -0.040686097 1.7054587e-38 361 275
0.048896957 0.66399997 -0.040747464 1.696167e-38 362 275
0.05006117 0.66399997 -0.040747464 1.6777277e-38 363 275
0.051225383 0.66399997 -0.040747464 1.6133725e-38 364 275
0.052547399 0.66600001 -0.040870197 1.5949694e-38 365 275
0.053715117 0.66600001 -0.040870197 1.5764243e-38 366 275
0.054965243 0.667 -0.040931564 1.5764243e-38 367 275
0.056134716 0.667 -0.040931564 1.5672048e-38 368 275
0.057561934 0.67000002 -0.041115668 1.5303265e-38 369 275
0.058911994 0.67199999 -0.041238401 1.5118874e-38 370 275
0.06026908 0.67400002 -0.041361131 1.4841927e-38 371 275
0.061633173 0.676 -0.041483864 1.4105093e-38 372 275
0.062818423 0.676 -0.041483864 1.3828148e-38 373 275
0.064003684 0.676 -0.041483864 1.3090235e-38 374 275
0.065478235 0.67900002 -0.041667968 1.281365e-38 375 275
0.066766933 0.68000001 -0.041729335 1.2629257e-38 376 275
0.067959204 0.68000001 -0.041729335 1.2444866e-38 377 275
0.069354847 0.68199998 -0.041852064 1.2444863e-38 378 275
0.070550621 0.68199998 -0.041852064 1.2260832e-38 379 275
0.071851604 0.68300003 -0.041913435 1.2444866e-38 380 275
0.073583893 0.68800002 -0.042220265 1.2444866e-38 381 275
0.075116299 0.69099998 -0.042404365 1.1984983e-38 382 275
0.076548778 0.69300002 -0.042527102 1.1892788e-38 383 275
0.077763841 0.69300002 -0.042527102 1.1154908e-38 384 275
0.0079408465 0.64700001 -0.04083864 1.6867421e-38 327 276
0.0091033066 0.64899999 -0.040964879 1.760386e-38 328 276
0.01024122 0.64899999 -0.040964879 1.7880445e-38 329 276
0.011379133 0.64899999 -0.040964879 1.7881849e-38 330 276
0.012517046 0.64899999 -0.040964879 1.7789654e-38 331 276
0.013654959 0.64899999 -0.040964879 1.8340639e-38 332 276
0.014815666 0.64999998 -0.041027997 1.8340639e-38 333 276
0.015955333 0.64999998 -0.041027997 1.8433543e-38 334 276
0.017095 0.64999998 -0.041027997 1.8433543e-38 335 276
0.018234665 0.64999998 -0.041027997 1.8616853e-38 336 276
0.019433947 0.65200001 -0.041154239 1.8616853e-38 337 276
0.020608678 0.653 -0.041217357 1.8616855e-38 338 276
0.021753605 0.653 -0.041217357 1.8616855e-38 339 276
0.022898532 0.653 -0.041217357 1.852466e-38 340 276
0.024043459 0.653 -0.041217357 1.852466e-38 341 276
0.025188386 0.653 -0.041217357 1.8523937e-38 342 276
0.02637364 0.65399998 -0.041280478 1.8523937e-38 343 276
0.027520318 0.65399998 -0.041280478 1.8339545e-38 344 276
0.028710833 0.65499997 -0.041343596 1.824735e-38 345 276
0.029859263 0.65499997 -0.041343596 1.8063682e-38 346 276
0.031007698 0.65499997 -0.041343596 1.7971486e-38 347 276
0.032156132 0.65499997 -0.041343596 1.7787818e-38 348 276
0.033304565 0.65499997 -0.041343596 1.7787818e-38 349 276
0.034452997 0.65499997 -0.041343596 1.7787818e-38 350 276
0.03560143 0.65499997 -0.041343596 1.7787818e-38 351 276
0.036749862 0.65499997 -0.041343596 1.7788174e-38 352 276
0.037898298 0.65499997 -0.041343596 1.7788174e-38 353 276
0.039046731 0.65499997 -0.041343596 1.7513392e-38 354 276
0.0403179 0.65700001 -0.041469838 1.7513392e-38 355 276
0.041469838 0.65700001 -0.041469838 1.742193e-38 356 276
0.042686652 0.65799999 -0.04153296 1.7514126e-38 357 276
0.043906972 0.65899998 -0.041596077 1.7238275e-38 358 276
0.045199182 0.66100001 -0.04172232 1.7330831e-38 359 276
0.046358135 0.66100001 -0.04172232 1.7055686e-38 360 276
0.047660857 0.66299999 -0.041848559 1.6963489e-38 361 276
0.048823316 0.66299999 -0.041848559 1.6870934e-38 362 276
0.05006117 0.66399997 -0.041911677 1.6778739e-38 363 276
0.051225383 0.66399997 -0.041911677 1.6502524e-38 364 276
0.052389596 0.66399997 -0.041911677 1.6134101e-38 365 276
0.053715117 0.66600001 -0.042037919 1.5856454e-38 366 276
0.054882839 0.66600001 -0.042037919 1.5856454e-38 367 276
0.056134716 0.667 -0.042101037 1.5488751e-38 368 276
0.057390101 0.66799998 -0.042164158 1.5119968e-38 369 276
0.058824331 0.671 -0.042353518 1.4935224e-38 370 276
0.060090236 0.67199999 -0.042416636 1.4658277e-38 371 276
0.061542001 0.67500001 -0.042606 1.3828523e-38 372 276
0.062725499 0.67500001 -0.042606 1.3551936e-38 373 276
0.064003684 0.676 -0.042669121 1.2813653e-38 374 276
0.065478235 0.67900002 -0.042858478 1.262926e-38 375 276
0.066766933 0.68000001 -0.042921599 1.2537415e-38 376 276
0.067959204 0.68000001 -0.042921599 1.2260829e-38 377 276
0.069354847 0.68199998 -0.043047838 1.2260829e-38 378 276
0.070550621 0.68199998 -0.043047838 1.244486e-38 379 276
0.07227239 0.68699998 -0.043363437 1.2169355e-38 380 276
0.073583893 0.68800002 -0.043426562 1.2076801e-38 381 276
0.075007595 0.69 -0.043552797 1.170912e-38 382 276
0.076548778 0.69300002 -0.043742158 1.1432531e-38 383 276
0.077763841 0.69300002 -0.043742158 1.0510257e-38 384 276
0.0068064397 0.64700001 -0.041973047 1.7236522e-38 326 277
0.0079408465 0.64700001 -0.041973047 1.7236522e-38 327 277
0.0090752533 0.64700001 -0.041973047 1.7788929e-38 328 277
0.01020966 0.64700001 -0.041973047 1.7881483e-38 329 277
0.0113616 0.648 -0.042037919 1.8157329e-38 330 277
0.012517046 0.64899999 -0.042102791 1.8157329e-38 331 277
0.013654959 0.64899999 -0.042102791 1.8340992e-38 332 277
0.014792874 0.64899999 -0.042102791 1.8433187e-38 333 277
0.015955333 0.64999998 -0.042167664 1.8616855e-38 334 277
0.017095 0.64999998 -0.042167664 1.8616855e-38 335 277
0.018234665 0.64999998 -0.042167664 1.8616853e-38 336 277
0.019374331 0.64999998 -0.042167664 1.8524657e-38 337 277
0.020513998 0.64999998 -0.042167664 1.8524657e-38 338 277
0.021653665 0.64999998 -0.042167664 1.8524657e-38 339 277
0.022793332 0.64999998 -0.042167664 1.8615781e-38 340 277
0.023932999 0.64999998 -0.042167664 1.8523584e-38 341 277
0.025072664 0.64999998 -0.042167664 1.8248073e-38 342 277
0.026292987 0.65200001 -0.042297412 1.8248073e-38 343 277
0.027478239 0.653 -0.042362284 1.833919e-38 344 277
0.028623167 0.653 -0.042362284 1.8246994e-38 345 277
0.029813679 0.65399998 -0.04242716 1.8062966e-38 346 277
0.030960357 0.65399998 -0.04242716 1.8062966e-38 347 277
0.032156132 0.65499997 -0.042492028 1.7787821e-38 348 277
0.033304565 0.65499997 -0.042492028 1.7787821e-38 349 277
0.034452997 0.65499997 -0.042492028 1.7513032e-38 350 277
0.03560143 0.65499997 -0.042492028 1.7513032e-38 351 277
0.036749862 0.65499997 -0.042492028 1.7605227e-38 352 277
0.037898298 0.65499997 -0.042492028 1.7697423e-38 353 277
0.039046731 0.65499997 -0.042492028 1.7421925e-38 354 277
0.040195163 0.65499997 -0.042492028 1.751412e-38 355 277
0.041343596 0.65499997 -0.042492028 1.742194e-38 356 277
0.04262178 0.65700001 -0.04262178 1.7514137e-38 357 277
0.043840345 0.65799999 -0.042686652 1.7147528e-38 358 277
0.045062415 0.65899998 -0.042751525 1.7239724e-38 359 277
0.046358135 0.66100001 -0.042881273 1.714825e-38 360 277
0.047588971 0.662 -0.042946145 1.714825e-38 361 277
0.048823316 0.66299999 -0.043011017 1.678019e-38 362 277
0.05006117 0.66399997 -0.043075889 1.6687993e-38 363 277
0.051225383 0.66399997 -0.043075889 1.6411779e-38 364 277
0.052389596 0.66399997 -0.043075889 1.6042998e-38 365 277
0.053715117 0.66600001 -0.043205637 1.6040851e-38 366 277
0.054882839 0.66600001 -0.043205637 1.5948297e-38 367 277
0.056134716 0.667 -0.04327051 1.5488042e-38 368 277
0.057390101 0.66799998 -0.043335386 1.5119618e-38 369 277
0.058824331 0.671 -0.043530006 1.4474968e-38 370 277
0.060000818 0.671 -0.043530006 1.4013991e-38 371 277
0.061450824 0.67400002 -0.043724626 1.3184946e-38 372 277
0.062725499 0.67500001 -0.043789499 1.2816522e-38 373 277
0.064003684 0.676 -0.043854371 1.2814003e-38 374 277
0.065381795 0.67799997 -0.043984115 1.2537415e-38 375 277
0.066766933 0.68000001 -0.044113863 1.2537415e-38 376 277
0.067959204 0.68000001 -0.044113863 1.244486e-38 377 277
0.069151461 0.68000001 -0.044113863 1.2260829e-38 378 277
0.070550621 0.68199998 -0.044243611 1.2260829e-38 379 277
0.072167195 0.68599999 -0.044503104 1.1893494e-38 380 277
0.073583893 0.68800002 -0.044632856 1.1893494e-38 381 277
0.075007595 0.69 -0.0447626 1.14329e-38 382 277
0.076217398 0.69 -0.0447626 1.0971923e-38 383 277
0.0056457333 0.64399999 -0.042907573 1.7418373e-38 325 278
0.00679592 0.64600003 -0.043040827 1.7605966e-38 326 278
0.0079285735 0.64600003 -0.043040827 1.7605966e-38 327 278
0.0090612266 0.64600003 -0.043040827 1.8065132e-38 328 278
0.01020966 0.64700001 -0.043107454 1.8065132e-38 329 278
0.011344067 0.64700001 -0.043107454 1.8340641e-38 330 278
0.012478473 0.64700001 -0.043107454 1.8340641e-38 331 278
0.01359184 0.64600003 -0.043040827 1.8340641e-38 332 278
0.014724494 0.64600003 -0.043040827 1.8340641e-38 333 278
0.015881693 0.64700001 -0.043107454 1.852431e-38 334 278
0.0170424 0.648 -0.043174081 1.852431e-38 335 278
0.01817856 0.648 -0.043174081 1.86165e-38 336 278
0.019314719 0.648 -0.043174081 1.8524304e-38 337 278
0.020450879 0.648 -0.043174081 1.8616137e-38 338 278
0.02158704 0.648 -0.043174081 1.8616137e-38 339 278
0.022758266 0.64899999 -0.043240704 1.8615781e-38 340 278
0.023896178 0.64899999 -0.043240704 1.8431388e-38 341 278
0.025034092 0.64899999 -0.043240704 1.8431744e-38 342 278
0.026172007 0.64899999 -0.043240704 1.833919e-38 343 278
0.027309919 0.64899999 -0.043240704 1.8063682e-38 344 278
0.028447833 0.64899999 -0.043240704 1.7971486e-38 345 278
0.029631332 0.64999998 -0.04330733 1.7971133e-38 346 278
0.03091302 0.653 -0.043507211 1.7971133e-38 347 278
0.03210704 0.65399998 -0.043573838 1.7695988e-38 348 278
0.033253718 0.65399998 -0.043573838 1.7511957e-38 349 278
0.034400396 0.65399998 -0.043573838 1.7329363e-38 350 278
0.035547078 0.65399998 -0.043573838 1.7513395e-38 351 278
0.036693759 0.65399998 -0.043573838 1.7421925e-38 352 278
0.037840437 0.65399998 -0.043573838 1.751412e-38 353 278
0.038987119 0.65399998 -0.043573838 1.7422291e-38 354 278
0.040133797 0.65399998 -0.043573838 1.7514845e-38 355 278
0.041343596 0.65499997 -0.043640465 1.7330828e-38 356 278
0.042492028 0.65499997 -0.043640465 1.7607055e-38 357 278
0.043773718 0.65700001 -0.043773718 1.7423758e-38 358 278
0.04492566 0.65700001 -0.043773718 1.7423758e-38 359 278
0.046217863 0.65899998 -0.043906972 1.7057499e-38 360 278
0.047517084 0.66100001 -0.044040225 1.6965303e-38 361 278
0.048749682 0.662 -0.044106852 1.6688723e-38 362 278
0.05006117 0.66399997 -0.044240102 1.6503973e-38 363 278
0.051225383 0.66399997 -0.044240102 1.631923e-38 364 278
0.052389596 0.66399997 -0.044240102 1.6042645e-38 365 278
0.053715117 0.66600001 -0.04437336 1.6041216e-38 366 278
0.054965243 0.667 -0.044439986 1.5672792e-38 367 278
0.056134716 0.667 -0.044439986 1.5212537e-38 368 278
0.057390101 0.66799998 -0.044506609 1.4659363e-38 369 278
0.058824331 0.671 -0.044706494 1.4015066e-38 370 278
0.060000818 0.671 -0.044706494 1.3554087e-38 371 278
0.061268479 0.67199999 -0.044773117 1.3184932e-38 372 278
0.062725499 0.67500001 -0.044972997 1.2907987e-38 373 278
0.063909002 0.67500001 -0.044972997 1.2722156e-38 374 278
0.065381795 0.67799997 -0.045172878 1.2537765e-38 375 278
0.066766933 0.68000001 -0.045306131 1.2445213e-38 376 278
0.067959204 0.68000001 -0.045306131 1.2445213e-38 377 278
0.069151461 0.68000001 -0.045306131 1.2260832e-38 378 278
0.070654072 0.68300003 -0.045506012 1.2168636e-38 379 278
0.072167195 0.68599999 -0.045705888 1.1892788e-38 380 278
0.073583893 0.68800002 -0.045839146 1.1615841e-38 381 278
0.074790187 0.68800002 -0.045839146 1.097122e-38 382 278
0.075996481 0.68800002 -0.045839146 1.0233655e-38 383 278
0 0.63800001 -0.043626439 1.7047146e-38 320 279
0.0011186267 0.63800001 -0.043626439 1.6862755e-38 321 279
0.0022372534 0.63800001 -0.043626439 1.6866307e-38 322 279
0.0033663998 0.63999999 -0.043763198 1.7051057e-38 323 279
0.0044885329 0.63999999 -0.043763198 1.760382e-38 324 279
0.0056457333 0.64399999 -0.044036716 1.760382e-38 325 279
0.0067748795 0.64399999 -0.044036716 1.8064401e-38 326 279
0.0079040267 0.64399999 -0.044036716 1.8064401e-38 327 279
0.0090331733 0.64399999 -0.044036716 1.8340627e-38 328 279
0.01019388 0.64600003 -0.044173479 1.8340627e-38 329 279
0.011291467 0.64399999 -0.044036716 1.8340274e-38 330 279
0.012420613 0.64399999 -0.044036716 1.8340274e-38 331 279
0.013549759 0.64399999 -0.044036716 1.8523586e-38 332 279
0.014678906 0.64399999 -0.044036716 1.8523586e-38 333 279
0.015857147 0.64600003 -0.044173479 1.8523586e-38 334 279
0.0170161 0.64700001 -0.044241857 1.8523586e-38 335 279
0.018150507 0.64700001 -0.044241857 1.8707249e-38 336 279
0.019284913 0.64700001 -0.044241857 1.8523218e-38 337 279
0.02041932 0.64700001 -0.044241857 1.8431738e-38 338 279
0.021553727 0.64700001 -0.044241857 1.8431738e-38 339 279
0.022688134 0.64700001 -0.044241857 1.8523221e-38 340 279
0.023859359 0.648 -0.044310238 1.8523221e-38 341 279
0.024995521 0.648 -0.044310238 1.833919e-38 342 279
0.02613168 0.648 -0.044310238 1.833919e-38 343 279
0.02726784 0.648 -0.044310238 1.7971839e-38 344 279
0.028404001 0.648 -0.044310238 1.7879285e-38 345 279
0.029585747 0.64899999 -0.044378616 1.787929e-38 346 279
0.030770998 0.64999998 -0.044446997 1.787929e-38 347 279
0.031910665 0.64999998 -0.044446997 1.751196e-38 348 279
0.033152029 0.65200001 -0.044583756 1.7695991e-38 349 279
0.034347799 0.653 -0.044652138 1.7513044e-38 350 279
0.035492726 0.653 -0.044652138 1.760524e-38 351 279
0.036693759 0.65399998 -0.044720516 1.7422296e-38 352 279
0.037840437 0.65399998 -0.044720516 1.7514493e-38 353 279
0.038987119 0.65399998 -0.044720516 1.7331191e-38 354 279
0.040133797 0.65399998 -0.044720516 1.7331191e-38 355 279
0.041280478 0.65399998 -0.044720516 1.7423036e-38 356 279
0.042492028 0.65499997 -0.044788897 1.7607786e-38 357 279
0.043640465 0.65499997 -0.044788897 1.733301e-38 358 279
0.04492566 0.65700001 -0.04492566 1.7425207e-38 359 279
0.04614773 0.65799999 -0.044994038 1.6965677e-38 360 279
0.04737331 0.65899998 -0.045062415 1.687348e-38 361 279
0.04867604 0.66100001 -0.045199182 1.6689452e-38 362 279
0.049985778 0.66299999 -0.045335937 1.632103e-38 363 279
0.051225383 0.66399997 -0.045404319 1.6228114e-38 364 279
0.052389596 0.66399997 -0.045404319 1.5766777e-38 365 279
0.053715117 0.66600001 -0.045541082 1.5673142e-38 366 279
0.054965243 0.667 -0.045609459 1.5027773e-38 367 279
0.056134716 0.667 -0.045609459 1.4567515e-38 368 279
0.057390101 0.66799998 -0.045677837 1.4014341e-38 369 279
0.058824331 0.671 -0.045882981 1.3554435e-38 370 279
0.060000818 0.671 -0.045882981 1.3185652e-38 371 279
0.061268479 0.67199999 -0.045951359 1.3185285e-38 372 279
0.062725499 0.67500001 -0.0461565 1.2632113e-38 373 279
0.063909002 0.67500001 -0.0461565 1.2538841e-38 374 279
0.065574668 0.68000001 -0.046498399 1.235445e-38 375 279
0.066766933 0.68000001 -0.046498399 1.2446298e-38 376 279
0.068159081 0.68199998 -0.046635158 1.2261548e-38 377 279
0.069354847 0.68199998 -0.046635158 1.2169002e-38 378 279
0.070757523 0.68400002 -0.046771921 1.2076806e-38 379 279
0.072167195 0.68599999 -0.046908677 1.1432531e-38 380 279
0.073476933 0.68699998 -0.046977058 1.124814e-38 381 279
0.074790187 0.68800002 -0.047045439 1.0142188e-38 382 279
0.075996481 0.68800002 -0.047045439 9.4968183e-39 383 279
-0.0011186267 0.63800001 -0.044745065 1.5944394e-38 319 280
0 0.63800001 -0.044745065 1.6126927e-38 320 280
0.0011186267 0.63800001 -0.044745065 1.6311677e-38 321 280
0.0022372534 0.63800001 -0.044745065 1.7143562e-38 322 280
0.0033663998 0.63999999 -0.04488533 1.7327954e-38 323 280
0.0044885329 0.63999999 -0.04488533 1.7604524e-38 324 280
0.0056106662 0.63999999 -0.04488533 1.7604524e-38 325 280
0.0067433193 0.64099997 -0.044955466 1.7880738e-38 326 280
0.0078917528 0.64300001 -0.045095734 1.7880738e-38 327 280
0.0090191467 0.64300001 -0.045095734 1.7972578e-38 328 280
0.01014654 0.64300001 -0.045095734 1.7972578e-38 329 280
0.011273934 0.64300001 -0.045095734 1.797258e-38 330 280
0.012401327 0.64300001 -0.045095734 1.7880385e-38 331 280
0.01352872 0.64300001 -0.045095734 1.7880029e-38 332 280
0.014656113 0.64300001 -0.045095734 1.7880029e-38 333 280
0.015808053 0.64399999 -0.045165867 1.8338486e-38 334 280
0.016989801 0.64600003 -0.045306131 1.8338486e-38 335 280
0.018122453 0.64600003 -0.045306131 1.8430672e-38 336 280
0.019255107 0.64600003 -0.045306131 1.8522868e-38 337 280
0.020387759 0.64600003 -0.045306131 1.8248079e-38 338 280
0.021520413 0.64600003 -0.045306131 1.8155524e-38 339 280
0.022653066 0.64600003 -0.045306131 1.8248079e-38 340 280
0.023822539 0.64700001 -0.045376267 1.8155524e-38 341 280
0.024956945 0.64700001 -0.045376267 1.8064047e-38 342 280
0.026091354 0.64700001 -0.045376267 1.7880016e-38 343 280
0.027225759 0.64700001 -0.045376267 1.7512663e-38 344 280
0.028360168 0.64700001 -0.045376267 1.7512663e-38 345 280
0.029540159 0.648 -0.0454464 1.751231e-38 346 280
0.030723657 0.64899999 -0.045516532 1.751231e-38 347 280
0.03186157 0.64899999 -0.045516532 1.7420127e-38 348 280
0.033050328 0.64999998 -0.045586664 1.7512323e-38 349 280
0.034295198 0.65200001 -0.045726933 1.7145711e-38 350 280
0.035438374 0.65200001 -0.045726933 1.7330101e-38 351 280
0.036637653 0.653 -0.045797065 1.7238275e-38 352 280
0.037840437 0.65399998 -0.045867197 1.7423026e-38 353 280
0.038987119 0.65399998 -0.045867197 1.7147884e-38 354 280
0.040133797 0.65399998 -0.045867197 1.7424111e-38 355 280
0.041280478 0.65399998 -0.045867197 1.7423761e-38 356 280
0.042492028 0.65499997 -0.04593733 1.7608152e-38 357 280
0.043640465 0.65499997 -0.04593733 1.7241541e-38 358 280
0.044788897 0.65499997 -0.04593733 1.7241541e-38 359 280
0.046077598 0.65700001 -0.046077598 1.6690891e-38 360 280
0.047301427 0.65799999 -0.04614773 1.6690891e-38 361 280
0.048528757 0.65899998 -0.046217863 1.6596538e-38 362 280
0.049985778 0.66299999 -0.046498399 1.6135918e-38 363 280
0.051148236 0.66299999 -0.046498399 1.6041919e-38 364 280
0.052389596 0.66399997 -0.046568532 1.5488745e-38 365 280
0.053715117 0.66600001 -0.046708796 1.5303984e-38 366 280
0.054965243 0.667 -0.046778932 1.4658615e-38 367 280
0.056134716 0.667 -0.046778932 1.4382754e-38 368 280
0.057390101 0.66799998 -0.046849065 1.4106167e-38 369 280
0.058824331 0.671 -0.047059465 1.3737384e-38 370 280
0.060000818 0.671 -0.047059465 1.3552993e-38 371 280
0.061268479 0.67199999 -0.047129598 1.3368579e-38 372 280
0.062725499 0.67500001 -0.047339998 1.2907601e-38 373 280
0.064003684 0.676 -0.047410134 1.2906528e-38 374 280
0.065574668 0.68000001 -0.047690667 1.2813973e-38 375 280
0.066766933 0.68000001 -0.047690667 1.2537412e-38 376 280
0.068259016 0.68300003 -0.047901068 1.2261185e-38 377 280
0.06955824 0.68400002 -0.0479712 1.2076806e-38 378 280
0.070757523 0.68400002 -0.0479712 1.1708024e-38 379 280
0.072167195 0.68599999 -0.048111461 1.0971923e-38 380 280
0.073476933 0.68699998 -0.048181597 1.0326554e-38 381 280
0.074790187 0.68800002 -0.048251733 9.6819452e-39 382 280
0.075996481 0.68800002 -0.048251733 9.5897482e-39 383 280
-0.0033506199 0.63700002 -0.045791805 1.5757098e-38 317 281
-0.0022337467 0.63700002 -0.045791805 1.5758498e-38 318 281
-0.0011168733 0.63700002 -0.045791805 1.6403867e-38 319 281
0 0.63700002 -0.045791805 1.7140694e-38 320 281
0.0011186267 0.63800001 -0.045863692 1.7509116e-38 321 281
0.0022372534 0.63800001 -0.045863692 1.7419409e-38 322 281
0.0033663998 0.63999999 -0.046007466 1.7511607e-38 323 281
0.0044885329 0.63999999 -0.046007466 1.7971136e-38 324 281
0.0056106662 0.63999999 -0.046007466 1.7971136e-38 325 281
0.0067433193 0.64099997 -0.046079349 1.797078e-38 326 281
0.0078794798 0.64200002 -0.046151239 1.8062975e-38 327 281
0.00900512 0.64200002 -0.046151239 1.815588e-38 328 281
0.01013076 0.64200002 -0.046151239 1.8063684e-38 329 281
0.011238866 0.64099997 -0.046079349 1.8154784e-38 330 281
0.012362752 0.64099997 -0.046079349 1.7786003e-38 331 281
0.01350768 0.64200002 -0.046151239 1.7602328e-38 332 281
0.01463332 0.64200002 -0.046151239 1.7418297e-38 333 281
0.015783506 0.64300001 -0.046223126 1.7877851e-38 334 281
0.0169372 0.64399999 -0.04629501 1.8154079e-38 335 281
0.018066347 0.64399999 -0.04629501 1.8429593e-38 336 281
0.019195493 0.64399999 -0.04629501 1.8521789e-38 337 281
0.020387759 0.64600003 -0.046438787 1.8339192e-38 338 281
0.021520413 0.64600003 -0.046438787 1.8246997e-38 339 281
0.022653066 0.64600003 -0.046438787 1.8155524e-38 340 281
0.023785722 0.64600003 -0.046438787 1.8155524e-38 341 281
0.024918374 0.64600003 -0.046438787 1.7880019e-38 342 281
0.026051028 0.64600003 -0.046438787 1.7880019e-38 343 281
0.02718368 0.64600003 -0.046438787 1.7695988e-38 344 281
0.028316336 0.64600003 -0.046438787 1.741976e-38 345 281
0.029494572 0.64700001 -0.046510674 1.7419409e-38 346 281
0.03067632 0.648 -0.046582561 1.7419409e-38 347 281
0.03186157 0.64899999 -0.046654444 1.7328663e-38 348 281
0.032999486 0.64899999 -0.046654444 1.7512694e-38 349 281
0.034189999 0.64999998 -0.046726331 1.7146435e-38 350 281
0.035329666 0.64999998 -0.046726331 1.7238631e-38 351 281
0.036637653 0.653 -0.046941992 1.7055686e-38 352 281
0.03778258 0.653 -0.046941992 1.7147881e-38 353 281
0.038927507 0.653 -0.046941992 1.724009e-38 354 281
0.04007243 0.653 -0.046941992 1.7332644e-38 355 281
0.041280478 0.65399998 -0.047013879 1.714899e-38 356 281
0.04242716 0.65399998 -0.047013879 1.733374e-38 357 281
0.043640465 0.65499997 -0.047085766 1.7241557e-38 358 281
0.044788897 0.65499997 -0.047085766 1.7149361e-38 359 281
0.046077598 0.65700001 -0.04722954 1.6965693e-38 360 281
0.04722954 0.65700001 -0.04722954 1.6412878e-38 361 281
0.048455119 0.65799999 -0.047301427 1.5951171e-38 362 281
0.049910385 0.662 -0.047588971 1.5397997e-38 363 281
0.051148236 0.66299999 -0.047660857 1.5211788e-38 364 281
0.052389596 0.66399997 -0.047732744 1.4843007e-38 365 281
0.053715117 0.66600001 -0.047876518 1.4474221e-38 366 281
0.054965243 0.667 -0.047948405 1.4105797e-38 367 281
0.056218877 0.66799998 -0.048020288 1.4197288e-38 368 281
0.057390101 0.66799998 -0.048020288 1.4105091e-38 369 281
0.058736663 0.67000002 -0.048164066 1.3737387e-38 370 281
0.060000818 0.671 -0.048235953 1.3552637e-38 371 281
0.061268479 0.67199999 -0.04830784 1.3368951e-38 372 281
0.062632568 0.67400002 -0.048451614 1.2907974e-38 373 281
0.064003684 0.676 -0.048595384 1.2722872e-38 374 281
0.065767527 0.68199998 -0.049026705 1.2446645e-38 375 281
0.0669633 0.68199998 -0.049026705 1.2444866e-38 376 281
0.068259016 0.68300003 -0.049098592 1.2260476e-38 377 281
0.06955824 0.68400002 -0.049170479 1.1708395e-38 378 281
0.070964411 0.68599999 -0.049314249 1.1063026e-38 379 281
0.07227239 0.68699998 -0.049386136 1.0234736e-38 380 281
0.073476933 0.68699998 -0.049386136 9.4046171e-39 381 281
0.074681476 0.68699998 -0.049386136 9.4950555e-39 382 281
-0.0044604796 0.63599998 -0.046835039 1.6127615e-38 316 282
-0.0033506199 0.63700002 -0.04690868 1.5758473e-38 317 282
-0.0022337467 0.63700002 -0.04690868 1.6680747e-38 318 282
-0.0011168733 0.63700002 -0.04690868 1.7049888e-38 319 282
0 0.63700002 -0.04690868 1.7141745e-38 320 282
0.0011168733 0.63700002 -0.04690868 1.7510526e-38 321 282
0.0022372534 0.63800001 -0.046982322 1.7510523e-38 322 282
0.00335588 0.63800001 -0.046982322 1.7602719e-38 323 282
0.0044745067 0.63800001 -0.046982322 1.7878587e-38 324 282
0.0056106662 0.63999999 -0.047129598 1.7878587e-38 325 282
0.0067327996 0.63999999 -0.047129598 1.7694554e-38 326 282
0.0078672068 0.64099997 -0.047203235 1.7509804e-38 327 282
0.0089910924 0.64099997 -0.047203235 1.7967516e-38 328 282
0.010114979 0.64099997 -0.047203235 1.7414344e-38 329 282
0.011221332 0.63999999 -0.047129598 1.6956579e-38 330 282
0.012343466 0.63999999 -0.047129598 1.7232807e-38 331 282
0.013486639 0.64099997 -0.047203235 1.7142059e-38 332 282
0.014610525 0.64099997 -0.047203235 1.7049863e-38 333 282
0.01575896 0.64200002 -0.047276881 1.7785653e-38 334 282
0.016884599 0.64200002 -0.047276881 1.806188e-38 335 282
0.018038293 0.64300001 -0.047350518 1.787822e-38 336 282
0.019165685 0.64300001 -0.047350518 1.8062612e-38 337 282
0.02032464 0.64399999 -0.04742416 1.7787823e-38 338 282
0.021453787 0.64399999 -0.04742416 1.7880019e-38 339 282
0.022582933 0.64399999 -0.04742416 1.7788186e-38 340 282
0.02371208 0.64399999 -0.04742416 1.7788186e-38 341 282
0.024918374 0.64600003 -0.047571443 1.7512323e-38 342 282
0.026051028 0.64600003 -0.047571443 1.7512323e-38 343 282
0.02718368 0.64600003 -0.047571443 1.7236817e-38 344 282
0.028316336 0.64600003 -0.047571443 1.7144262e-38 345 282
0.029494572 0.64700001 -0.047645077 1.7144269e-38 346 282
0.03067632 0.648 -0.047718719 1.7236464e-38 347 282
0.031812482 0.648 -0.047718719 1.7236833e-38 348 282
0.032999486 0.64899999 -0.047792356 1.7329029e-38 349 282
0.034137398 0.64899999 -0.047792356 1.696277e-38 350 282
0.03527531 0.64899999 -0.047792356 1.7054965e-38 351 282
0.036469329 0.64999998 -0.047865998 1.7147528e-38 352 282
0.037724718 0.65200001 -0.048013281 1.7239724e-38 353 282
0.038867895 0.65200001 -0.048013281 1.7057502e-38 354 282
0.040011063 0.65200001 -0.048013281 1.7241894e-38 355 282
0.041217357 0.653 -0.048086919 1.7149714e-38 356 282
0.042362284 0.653 -0.048086919 1.7149714e-38 357 282
0.043640465 0.65499997 -0.048234195 1.6965698e-38 358 282
0.044788897 0.65499997 -0.048234195 1.6688751e-38 359 282
0.046077598 0.65700001 -0.048381478 1.6136284e-38 360 282
0.04722954 0.65700001 -0.048381478 1.5583112e-38 361 282
0.048455119 0.65799999 -0.048455119 1.5122114e-38 362 282
0.049834993 0.66100001 -0.04867604 1.4661136e-38 363 282
0.051148236 0.66299999 -0.048823316 1.4476021e-38 364 282
0.052389596 0.66399997 -0.048896957 1.429163e-38 365 282
0.053715117 0.66600001 -0.04904424 1.4198006e-38 366 282
0.054965243 0.667 -0.049117878 1.4198006e-38 367 282
0.056218877 0.66799998 -0.04919152 1.419729e-38 368 282
0.057390101 0.66799998 -0.04919152 1.4105093e-38 369 282
0.058736663 0.67000002 -0.049338799 1.4013248e-38 370 282
0.060000818 0.671 -0.049412437 1.3736302e-38 371 282
0.061268479 0.67199999 -0.049486078 1.3460778e-38 372 282
0.062632568 0.67400002 -0.049633358 1.3091637e-38 373 282
0.064003684 0.676 -0.049780637 1.299837e-38 374 282
0.065767527 0.68199998 -0.050222475 1.2537394e-38 375 282
0.067061491 0.68300003 -0.05029612 1.2168636e-38 376 282
0.068259016 0.68300003 -0.05029612 1.1891689e-38 377 282
0.06955824 0.68400002 -0.050369758 1.1247787e-38 378 282
0.070964411 0.68599999 -0.050517038 1.0325832e-38 379 282
0.07227239 0.68699998 -0.050590675 9.7737779e-39 380 282
0.073476933 0.68699998 -0.050590675 9.4968309e-39 381 282
-0.0044604796 0.63599998 -0.047950156 1.640418e-38 316 283
-0.0033453598 0.63599998 -0.047950156 1.6772961e-38 317 283
-0.0022302398 0.63599998 -0.047950156 1.7233568e-38 318 283
-0.0011151199 0.63599998 -0.047950156 1.7233568e-38 319 283
0 0.63700002 -0.048025552 1.732541e-38 320 283
0.0011168733 0.63700002 -0.048025552 1.751016e-38 321 283
0.0022337467 0.63700002 -0.048025552 1.751016e-38 322 283
0.00335588 0.63800001 -0.048100945 1.7602356e-38 323 283
0.0044745067 0.63800001 -0.048100945 1.7786021e-38 324 283
0.0055931332 0.63800001 -0.048100945 1.7693826e-38 325 283
0.0067327996 0.63999999 -0.048251729 1.7783485e-38 326 283
0.0078549329 0.63999999 -0.048251729 1.7322148e-38 327 283
0.0089770658 0.63999999 -0.048251729 1.7135575e-38 328 283
0.0100992 0.63999999 -0.048251729 1.6490211e-38 329 283
0.011221332 0.63999999 -0.048251729 1.6216875e-38 330 283
0.012304893 0.63800001 -0.048100945 1.6862245e-38 331 283
0.01342352 0.63800001 -0.048100945 1.6956255e-38 332 283
0.014587732 0.63999999 -0.048251729 1.7417593e-38 333 283
0.015734414 0.64099997 -0.048327126 1.7693454e-38 334 283
0.016858298 0.64099997 -0.048327126 1.7878204e-38 335 283
0.01801024 0.64200002 -0.048402522 1.7602704e-38 336 283
0.019135879 0.64200002 -0.048402522 1.7695258e-38 337 283
0.020293079 0.64300001 -0.04847791 1.7695269e-38 338 283
0.021420473 0.64300001 -0.04847791 1.7695269e-38 339 283
0.022547867 0.64300001 -0.04847791 1.7511604e-38 340 283
0.02371208 0.64399999 -0.048553303 1.7511604e-38 341 283
0.024841227 0.64399999 -0.048553303 1.7327577e-38 342 283
0.025970373 0.64399999 -0.048553303 1.7327577e-38 343 283
0.027099518 0.64399999 -0.048553303 1.7144269e-38 344 283
0.028316336 0.64600003 -0.048704095 1.7236464e-38 345 283
0.029448988 0.64600003 -0.048704095 1.6960603e-38 346 283
0.030628979 0.64700001 -0.048779488 1.723683e-38 347 283
0.031763386 0.64700001 -0.048779488 1.714536e-38 348 283
0.032897793 0.64700001 -0.048779488 1.7329391e-38 349 283
0.034084801 0.648 -0.04885488 1.6963133e-38 350 283
0.035220958 0.648 -0.04885488 1.705533e-38 351 283
0.036469329 0.64999998 -0.049005665 1.6964582e-38 352 283
0.037724718 0.65200001 -0.049156453 1.7056777e-38 353 283
0.038867895 0.65200001 -0.049156453 1.6873483e-38 354 283
0.040011063 0.65200001 -0.049156453 1.7149711e-38 355 283
0.041217357 0.653 -0.049231846 1.696533e-38 356 283
0.042362284 0.653 -0.049231846 1.6873133e-38 357 283
0.043640465 0.65499997 -0.049382631 1.6688739e-38 358 283
0.044788897 0.65499997 -0.049382631 1.6135565e-38 359 283
