# .PCD v.7 - Point Cloud Data file format
FIELDS x y z rgb imX imY
SIZE 4 4 4 4 4 4
TYPE F F F F F F
COUNT 1 1 1 1 1 1
WIDTH 843
HEIGHT 1
VIEWPOINT 0 0 0 1 0 0 0
POINTS 843
DATA ascii
-0.015978126 0.70099998 -0.025810819 2.8526919e-39 307 261
-0.014791119 0.70300001 -0.025884461 3.1278369e-39 308 261
-0.013558527 0.70300001 -0.025884461 3.1278369e-39 309 261
-0.012325933 0.70300001 -0.025884461 3.6784911e-39 310 261
-0.01109334 0.70300001 -0.025884461 3.5862941e-39 311 261
-0.0098607466 0.70300001 -0.025884461 3.4951705e-39 312 261
-0.0086404262 0.704 -0.02592128 3.4951705e-39 313 261
-0.0074060797 0.704 -0.02592128 3.4951677e-39 314 261
-0.0061717331 0.704 -0.02592128 3.5873633e-39 315 261
-0.0049373866 0.704 -0.02592128 3.9547053e-39 316 261
-0.0037030398 0.704 -0.02592128 4.0469009e-39 317 261
-0.0024686933 0.704 -0.02592128 4.3227675e-39 318 261
-0.0012343467 0.704 -0.02592128 4.4149632e-39 319 261
0 0.70599997 -0.025994917 4.5986314e-39 320 261
0.0012378532 0.70599997 -0.025994917 4.690827e-39 321 261
0.0024757064 0.70599997 -0.025994917 4.8741393e-39 322 261
0.0037188199 0.70700002 -0.02603174 5.0585319e-39 323 261
0.0049584266 0.70700002 -0.02603174 5.0596067e-39 324 261
0.0061980332 0.70700002 -0.02603174 5.3361936e-39 325 261
0.0074481601 0.708 -0.026068559 5.4283892e-39 326 261
0.008689519 0.708 -0.026068559 5.4283892e-39 327 261
0.0099589331 0.70999998 -0.026142199 5.8857773e-39 328 261
0.011203799 0.70999998 -0.026142199 6.0698084e-39 329 261
0.012448666 0.70999998 -0.026142199 6.162011e-39 330 261
0.01371282 0.71100003 -0.026179021 6.3464023e-39 331 261
0.015001519 0.713 -0.026252659 6.4393196e-39 332 261
0.016274439 0.71399999 -0.026289478 6.8081035e-39 333 261
0.017575413 0.71600002 -0.026363119 7.5474622e-39 334 261
0.0188308 0.71600002 -0.026363119 7.9162461e-39 335 261
0.020086186 0.71600002 -0.026363119 8.652372e-39 336 261
0.021371379 0.71700001 -0.02639994 8.375425e-39 337 261
-0.059497613 0.722 -0.027849946 1.7885958e-38 273 262
-0.058231708 0.722 -0.027849946 1.4008691e-38 274 262
-0.056808002 0.72000003 -0.027772799 4.6972926e-39 275 262
-0.055468451 0.71899998 -0.027734226 5.6149287e-39 276 262
-0.054057021 0.71700001 -0.027657079 6.3524937e-39 277 262
-0.052726239 0.71600002 -0.027618507 5.3408655e-39 278 262
-0.051470853 0.71600002 -0.027618507 4.6033005e-39 279 262
-0.050075196 0.71399999 -0.02754136 4.1426867e-39 280 262
-0.048823316 0.71399999 -0.02754136 3.958294e-39 281 262
-0.047371563 0.71100003 -0.027425639 3.957578e-39 282 262
-0.046124939 0.71100003 -0.027425639 3.957578e-39 283 262
-0.044815198 0.70999998 -0.027387066 3.8650292e-39 284 262
-0.043570329 0.70999998 -0.027387066 3.8650292e-39 285 262
-0.042206239 0.708 -0.027309919 3.4969669e-39 286 262
-0.040964879 0.708 -0.027309919 3.4047713e-39 287 262
-0.039723519 0.708 -0.027309919 2.7619186e-39 288 262
-0.038427804 0.70700002 -0.027271347 2.7619186e-39 289 262
-0.037135597 0.70599997 -0.027232772 2.3938592e-39 290 262
-0.035796054 0.704 -0.027155625 2.3938592e-39 291 262
-0.034561705 0.704 -0.027155625 2.4853388e-39 292 262
-0.03332736 0.704 -0.027155625 2.6693699e-39 293 262
-0.032093015 0.704 -0.027155625 2.4860576e-39 294 262
-0.030858666 0.704 -0.027155625 2.4860576e-39 295 262
-0.029624319 0.704 -0.027155625 2.6693699e-39 296 262
-0.028389972 0.704 -0.027155625 2.6693699e-39 297 262
-0.027155625 0.704 -0.027155625 2.6693727e-39 298 262
-0.02592128 0.704 -0.027155625 2.6693727e-39 299 262
-0.024651866 0.70300001 -0.027117053 2.8526919e-39 300 262
-0.023419274 0.70300001 -0.027117053 2.9452477e-39 301 262
-0.02218668 0.70300001 -0.027117053 3.1285572e-39 302 262
-0.020954086 0.70300001 -0.027117053 3.1285572e-39 303 262
-0.019721493 0.70300001 -0.027117053 3.0363573e-39 304 262
-0.018436298 0.70099998 -0.027039904 2.9441617e-39 305 262
-0.017207211 0.70099998 -0.027039904 2.9441617e-39 306 262
-0.015978126 0.70099998 -0.027039904 3.0363573e-39 307 262
-0.014791119 0.70300001 -0.027117053 3.1278369e-39 308 262
-0.013558527 0.70300001 -0.027117053 3.3118694e-39 309 262
-0.012325933 0.70300001 -0.027117053 3.6792128e-39 310 262
-0.01109334 0.70300001 -0.027117053 3.6792128e-39 311 262
-0.0098607466 0.70300001 -0.027117053 3.8628782e-39 312 262
-0.0086404262 0.704 -0.027155625 3.8628782e-39 313 262
-0.0074060797 0.704 -0.027155625 3.8628754e-39 314 262
-0.0061717331 0.704 -0.027155625 3.955071e-39 315 262
-0.0049373866 0.704 -0.027155625 4.3231333e-39 316 262
-0.0037030398 0.704 -0.027155625 4.4153289e-39 317 262
-0.0024686933 0.704 -0.027155625 4.5075245e-39 318 262
-0.0012378532 0.70599997 -0.027232772 4.5075245e-39 319 262
0 0.70599997 -0.027232772 4.6922703e-39 320 262
0.0012378532 0.70599997 -0.027232772 4.6922703e-39 321 262
0.0024792133 0.70700002 -0.027271347 4.9681341e-39 322 262
0.0037188199 0.70700002 -0.027271347 5.0603298e-39 323 262
0.0049584266 0.70700002 -0.027271347 5.3361964e-39 324 262
0.0062067998 0.708 -0.027309919 5.5205891e-39 325 262
0.0074481601 0.708 -0.027309919 5.7042573e-39 326 262
0.0087140659 0.70999998 -0.027387066 5.7042573e-39 327 262
0.0099589331 0.70999998 -0.027387066 6.1623613e-39 328 262
0.011203799 0.70999998 -0.027387066 6.1623613e-39 329 262
0.0124662 0.71100003 -0.027425639 6.2542038e-39 330 262
0.01371282 0.71100003 -0.027425639 6.4385951e-39 331 262
0.015022559 0.71399999 -0.02754136 6.8073804e-39 332 262
0.016320027 0.71600002 -0.027618507 7.4527498e-39 333 262
0.017575413 0.71600002 -0.027618507 7.7314919e-39 334 262
0.0188308 0.71600002 -0.027618507 8.2843056e-39 335 262
0.020086186 0.71600002 -0.027618507 9.0186308e-39 336 262
0.021341572 0.71600002 -0.027618507 8.465457e-39 337 262
-0.058070403 0.72000003 -0.029035201 1.529943e-38 274 263
-0.056808002 0.72000003 -0.029035201 5.8958358e-39 275 263
-0.055545598 0.72000003 -0.029035201 5.2483014e-39 276 263
-0.054207806 0.71899998 -0.028994869 6.0777019e-39 277 263
-0.052799881 0.71700001 -0.028914221 5.616372e-39 278 263
-0.051470853 0.71600002 -0.028873893 4.9710026e-39 279 263
-0.050215468 0.71600002 -0.028873893 4.4185505e-39 280 263
-0.048823316 0.71399999 -0.028793238 4.1423237e-39 281 263
-0.047371563 0.71100003 -0.028672259 3.9582968e-39 282 263
-0.046124939 0.71100003 -0.028672259 3.9582968e-39 283 263
-0.044815198 0.70999998 -0.028631933 4.140893e-39 284 263
-0.043570329 0.70999998 -0.028631933 3.9565032e-39 285 263
-0.042206239 0.708 -0.02855128 3.7728308e-39 286 263
-0.040964879 0.708 -0.02855128 3.496604e-39 287 263
-0.039723519 0.708 -0.02855128 2.8541143e-39 288 263
-0.038427804 0.70700002 -0.028510952 2.8541143e-39 289 263
-0.037188202 0.70700002 -0.028510952 2.5786092e-39 290 263
-0.035796054 0.704 -0.028389972 2.4864135e-39 291 263
-0.034561705 0.704 -0.028389972 2.6693699e-39 292 263
-0.03332736 0.704 -0.028389972 2.6693699e-39 293 263
-0.032093015 0.704 -0.028389972 2.6693699e-39 294 263
-0.030858666 0.704 -0.028389972 2.6693699e-39 295 263
-0.029624319 0.704 -0.028389972 2.393862e-39 296 263
-0.028389972 0.704 -0.028389972 2.393862e-39 297 263
-0.027155625 0.704 -0.028389972 2.6693727e-39 298 263
-0.02592128 0.704 -0.028389972 2.6693727e-39 299 263
-0.024686933 0.704 -0.028389972 2.7615683e-39 300 263
-0.023419274 0.70300001 -0.028349647 2.8537653e-39 301 263
-0.02218668 0.70300001 -0.028349647 3.1289131e-39 302 263
-0.020954086 0.70300001 -0.028349647 3.1289131e-39 303 263
-0.019721493 0.70300001 -0.028349647 3.1281928e-39 304 263
-0.018488899 0.70300001 -0.028349647 3.1281928e-39 305 263
-0.017256306 0.70300001 -0.028349647 3.3122254e-39 306 263
-0.016023712 0.70300001 -0.028349647 3.3122254e-39 307 263
-0.014812159 0.704 -0.028389972 3.4044238e-39 308 263
-0.013577812 0.704 -0.028389972 3.4044238e-39 309 263
-0.012325933 0.70300001 -0.028349647 4.0465534e-39 310 263
-0.01109334 0.70300001 -0.028349647 4.2305845e-39 311 263
-0.0098607466 0.70300001 -0.028349647 4.3224144e-39 312 263
-0.0086404262 0.704 -0.028389972 4.3224144e-39 313 263
-0.0074060797 0.704 -0.028389972 4.3231333e-39 314 263
-0.0061717331 0.704 -0.028389972 4.3231333e-39 315 263
-0.0049373866 0.704 -0.028389972 4.41461e-39 316 263
-0.0037030398 0.704 -0.028389972 4.6911955e-39 317 263
-0.0024757064 0.70599997 -0.028470624 4.7833898e-39 318 263
-0.0012378532 0.70599997 -0.028470624 4.8755854e-39 319 263
0 0.70599997 -0.028470624 4.8759413e-39 320 263
0.0012396066 0.70700002 -0.028510952 4.968137e-39 321 263
0.0024792133 0.70700002 -0.028510952 5.2436448e-39 322 263
0.00372408 0.708 -0.02855128 5.3358405e-39 323 263
0.0049654399 0.708 -0.02855128 5.8872136e-39 324 263
0.0062067998 0.708 -0.02855128 5.9797679e-39 325 263
0.0074481601 0.708 -0.02855128 6.0719636e-39 326 263
0.0087140659 0.70999998 -0.028631933 5.9797679e-39 327 263
0.0099589331 0.70999998 -0.028631933 6.0708888e-39 328 263
0.011203799 0.70999998 -0.028631933 6.0708888e-39 329 263
0.0124662 0.71100003 -0.028672259 6.3471183e-39 330 263
0.013751393 0.713 -0.028752912 6.5318683e-39 331 263
0.01506464 0.71600002 -0.028873893 6.8084566e-39 332 263
0.016320027 0.71600002 -0.028873893 7.6378572e-39 333 263
0.017575413 0.71600002 -0.028873893 8.0077187e-39 334 263
0.0188308 0.71600002 -0.028873893 8.3768613e-39 335 263
0.020086186 0.71600002 -0.028873893 8.8349626e-39 336 263
0.021341572 0.71600002 -0.028873893 8.0052005e-39 337 263
-0.058070403 0.72000003 -0.0302976 1.6316459e-38 274 264
-0.056808002 0.72000003 -0.0302976 7.5578738e-39 275 264
-0.055545598 0.72000003 -0.0302976 5.7089208e-39 276 264
-0.054207806 0.71899998 -0.030255521 5.8014751e-39 277 264
-0.052799881 0.71700001 -0.030171359 5.6170909e-39 278 264
-0.051470853 0.71600002 -0.03012928 4.9717215e-39 279 264
-0.050215468 0.71600002 -0.03012928 4.5111021e-39 280 264
-0.048823316 0.71399999 -0.030045118 4.4189064e-39 281 264
-0.047504812 0.713 -0.030003037 4.050491e-39 282 264
-0.046124939 0.71100003 -0.029918881 4.050491e-39 283 264
-0.044815198 0.70999998 -0.029876797 4.2330858e-39 284 264
-0.043570329 0.70999998 -0.029876797 4.1408902e-39 285 264
-0.042325463 0.70999998 -0.029876797 3.8646635e-39 286 264
-0.040964879 0.708 -0.02979264 3.8646635e-39 287 264
-0.039723519 0.708 -0.02979264 3.1303354e-39 288 264
-0.038427804 0.70700002 -0.029750559 3.1303354e-39 289 264
-0.037188202 0.70700002 -0.029750559 2.8541143e-39 290 264
-0.035796054 0.704 -0.029624319 2.7619186e-39 291 264
-0.034561705 0.704 -0.029624319 2.4864135e-39 292 264
-0.03332736 0.704 -0.029624319 2.4864135e-39 293 264
-0.032093015 0.704 -0.029624319 2.3027426e-39 294 264
-0.030858666 0.704 -0.029624319 2.3027426e-39 295 264
-0.029624319 0.704 -0.029624319 2.3027426e-39 296 264
-0.028389972 0.704 -0.029624319 2.3027426e-39 297 264
-0.027155625 0.704 -0.029624319 2.393862e-39 298 264
-0.02592128 0.704 -0.029624319 2.393862e-39 299 264
-0.024686933 0.704 -0.029624319 2.6693727e-39 300 264
-0.023419274 0.70300001 -0.029582238 2.7615683e-39 301 264
-0.02218668 0.70300001 -0.029582238 2.8530451e-39 302 264
-0.020954086 0.70300001 -0.029582238 2.8530451e-39 303 264
-0.019721493 0.70300001 -0.029582238 3.1281928e-39 304 264
-0.018488899 0.70300001 -0.029582238 3.3122254e-39 305 264
-0.017256306 0.70300001 -0.029582238 3.3122254e-39 306 264
-0.016023712 0.70300001 -0.029582238 3.404421e-39 307 264
-0.014812159 0.704 -0.029624319 3.4958978e-39 308 264
-0.013577812 0.704 -0.029624319 3.4037021e-39 309 264
-0.012343466 0.704 -0.029624319 3.8625251e-39 310 264
-0.01109334 0.70300001 -0.029582238 3.9547207e-39 311 264
-0.0098607466 0.70300001 -0.029582238 4.2305817e-39 312 264
-0.0086404262 0.704 -0.029624319 4.3231361e-39 313 264
-0.0074060797 0.704 -0.029624319 4.4153317e-39 314 264
-0.0061717331 0.704 -0.029624319 4.4153317e-39 315 264
-0.0049373866 0.704 -0.029624319 4.4146128e-39 316 264
-0.0037030398 0.704 -0.029624319 4.5068085e-39 317 264
-0.0024757064 0.70599997 -0.029708479 4.5075245e-39 318 264
-0.0012378532 0.70599997 -0.029708479 4.5997216e-39 319 264
0 0.70599997 -0.029708479 4.6922731e-39 320 264
0.0012396066 0.70700002 -0.029750559 4.7844688e-39 321 264
0.00248272 0.708 -0.02979264 4.9677838e-39 322 264
0.00372408 0.708 -0.02979264 5.1521751e-39 323 264
0.0049654399 0.708 -0.02979264 5.3362062e-39 324 264
0.0062067998 0.708 -0.02979264 5.5209576e-39 325 264
0.0074481601 0.708 -0.02979264 5.704623e-39 326 264
0.0087140659 0.70999998 -0.029876797 5.704623e-39 327 264
0.0099589331 0.70999998 -0.029876797 5.7961026e-39 328 264
0.011203799 0.70999998 -0.029876797 5.8882982e-39 329 264
0.0124662 0.71100003 -0.029918881 6.1645249e-39 330 264
0.01377068 0.71399999 -0.030045118 6.441472e-39 331 264
0.01506464 0.71600002 -0.03012928 6.9946429e-39 332 264
0.016320027 0.71600002 -0.03012928 7.5478153e-39 333 264
0.017599959 0.71700001 -0.030171359 8.1921099e-39 334 264
0.018857099 0.71700001 -0.030171359 8.5608925e-39 335 264
0.020114239 0.71700001 -0.030171359 9.0186308e-39 336 264
0.021371379 0.71700001 -0.030171359 8.18851e-39 337 264
-0.058070403 0.72000003 -0.03156 1.7514283e-38 274 265
-0.056808002 0.72000003 -0.03156 9.9538812e-39 275 265
-0.055545598 0.72000003 -0.03156 6.904943e-39 276 265
-0.054207806 0.71899998 -0.031516165 6.167378e-39 277 265
-0.05294716 0.71899998 -0.031516165 5.3441025e-39 278 265
-0.051542737 0.71700001 -0.031428497 4.514702e-39 279 265
-0.050215468 0.71600002 -0.031384666 4.4210742e-39 280 265
-0.048823316 0.71399999 -0.031296998 4.1444873e-39 281 265
-0.047504812 0.713 -0.031253166 4.1434083e-39 282 265
-0.046124939 0.71100003 -0.031165501 3.9593772e-39 283 265
-0.044878319 0.71100003 -0.031165501 4.1419734e-39 284 265
-0.043570329 0.70999998 -0.031121666 4.0497764e-39 285 265
-0.042325463 0.70999998 -0.031121666 4.1405371e-39 286 265
-0.041080594 0.70999998 -0.031121666 4.1405371e-39 287 265
-0.039723519 0.708 -0.031034 3.1314242e-39 288 265
-0.038482159 0.708 -0.031034 3.0392286e-39 289 265
-0.037188202 0.70700002 -0.030990168 2.9463141e-39 290 265
-0.035948593 0.70700002 -0.030990168 2.8541171e-39 291 265
-0.034561705 0.704 -0.030858666 2.3949382e-39 292 265
-0.03332736 0.704 -0.030858666 2.3949382e-39 293 265
-0.032093015 0.704 -0.030858666 2.3034642e-39 294 265
-0.030858666 0.704 -0.030858666 2.119073e-39 295 265
-0.029624319 0.704 -0.030858666 2.2105497e-39 296 265
-0.028389972 0.704 -0.030858666 2.1183541e-39 297 265
-0.027155625 0.704 -0.030858666 2.393862e-39 298 265
-0.02592128 0.704 -0.030858666 2.4860576e-39 299 265
-0.024686933 0.704 -0.030858666 2.6693699e-39 300 265
-0.023419274 0.70300001 -0.030814834 2.6693699e-39 301 265
-0.02218668 0.70300001 -0.030814834 3.0356385e-39 302 265
-0.020954086 0.70300001 -0.030814834 3.1281928e-39 303 265
-0.019721493 0.70300001 -0.030814834 3.4037021e-39 304 265
-0.018488899 0.70300001 -0.030814834 3.4037021e-39 305 265
-0.017256306 0.70300001 -0.030814834 3.4036993e-39 306 265
-0.016023712 0.70300001 -0.030814834 3.4036993e-39 307 265
-0.014812159 0.704 -0.030858666 3.4037021e-39 308 265
-0.013577812 0.704 -0.030858666 3.4037021e-39 309 265
-0.012343466 0.704 -0.030858666 3.9543578e-39 310 265
-0.011109119 0.704 -0.030858666 4.0465534e-39 311 265
-0.0098747732 0.704 -0.030858666 4.3220613e-39 312 265
-0.0086404262 0.704 -0.030858666 4.4142569e-39 313 265
-0.0074060797 0.704 -0.030858666 4.2320195e-39 314 265
-0.0061717331 0.704 -0.030858666 4.1394651e-39 315 265
-0.0049373866 0.704 -0.030858666 4.4149758e-39 316 265
-0.0037030398 0.704 -0.030858666 4.4149758e-39 317 265
-0.0024757064 0.70599997 -0.030946331 4.5075245e-39 318 265
-0.0012378532 0.70599997 -0.030946331 4.5997216e-39 319 265
0 0.70599997 -0.030946331 4.7833898e-39 320 265
0.00124136 0.708 -0.031034 4.7833898e-39 321 265
0.00248272 0.708 -0.031034 5.1503772e-39 322 265
0.00372408 0.708 -0.031034 5.3351272e-39 323 265
0.0049794666 0.70999998 -0.031121666 5.1521751e-39 324 265
0.0062243328 0.70999998 -0.031121666 5.428762e-39 325 265
0.0074691991 0.70999998 -0.031121666 5.5209548e-39 326 265
0.0087140659 0.70999998 -0.031121666 5.5209548e-39 327 265
0.0099589331 0.70999998 -0.031121666 5.7042699e-39 328 265
0.01121958 0.71100003 -0.031165501 5.7964655e-39 329 265
0.012501267 0.713 -0.031253166 6.2560045e-39 330 265
0.013809253 0.71600002 -0.031384666 6.8091783e-39 331 265
0.015085679 0.71700001 -0.031428497 6.9946429e-39 332 265
0.016342819 0.71700001 -0.031428497 7.6400124e-39 333 265
0.017599959 0.71700001 -0.031428497 8.3757781e-39 334 265
0.018857099 0.71700001 -0.031428497 8.6523664e-39 335 265
0.020114239 0.71700001 -0.031428497 9.1086712e-39 336 265
0.021371379 0.71700001 -0.031428497 8.3711062e-39 337 265
-0.056965802 0.722 -0.032913569 1.1707396e-38 275 266
-0.055699892 0.722 -0.032913569 8.8370912e-39 276 266
-0.054283202 0.72000003 -0.0328224 7.1775698e-39 277 266
-0.05294716 0.71899998 -0.032776814 5.8014849e-39 278 266
-0.051542737 0.71700001 -0.032685637 5.3408655e-39 279 266
-0.050215468 0.71600002 -0.032640055 4.8806104e-39 280 266
-0.048960082 0.71600002 -0.032640055 4.6958605e-39 281 266
-0.047571439 0.71399999 -0.032548878 4.6032977e-39 282 266
-0.046319555 0.71399999 -0.032548878 4.5111021e-39 283 266
-0.044878319 0.71100003 -0.032412119 4.5100273e-39 284 266
-0.043631699 0.71100003 -0.032412119 4.4178316e-39 285 266
-0.042325463 0.70999998 -0.032366529 4.3260017e-39 286 266
-0.041080594 0.70999998 -0.032366529 4.1419706e-39 287 266
-0.039723519 0.708 -0.03227536 3.9579409e-39 288 266
-0.038482159 0.708 -0.03227536 3.6817141e-39 289 266
-0.037188202 0.70700002 -0.032229774 3.222531e-39 290 266
-0.035948593 0.70700002 -0.032229774 3.1303354e-39 291 266
-0.034561705 0.704 -0.032093015 2.5786036e-39 292 266
-0.03332736 0.704 -0.032093015 2.5786036e-39 293 266
-0.032093015 0.704 -0.032093015 2.4864135e-39 294 266
-0.030858666 0.704 -0.032093015 2.4864135e-39 295 266
-0.029708479 0.70599997 -0.032184184 2.393862e-39 296 266
-0.028389972 0.704 -0.032093015 2.393862e-39 297 266
-0.027155625 0.704 -0.032093015 2.393862e-39 298 266
-0.02592128 0.704 -0.032093015 2.393862e-39 299 266
-0.024686933 0.704 -0.032093015 2.3938648e-39 300 266
-0.023452586 0.704 -0.032093015 2.4860604e-39 301 266
-0.022218239 0.704 -0.032093015 2.7608494e-39 302 266
-0.020983893 0.704 -0.032093015 2.8530451e-39 303 266
-0.019749546 0.704 -0.032093015 3.3122254e-39 304 266
-0.018488899 0.70300001 -0.032047424 3.3122254e-39 305 266
-0.017256306 0.70300001 -0.032047424 3.6795659e-39 306 266
-0.016023712 0.70300001 -0.032047424 3.6795659e-39 307 266
-0.014812159 0.704 -0.032093015 3.8628754e-39 308 266
-0.013577812 0.704 -0.032093015 3.8628754e-39 309 266
-0.012343466 0.704 -0.032093015 3.8628782e-39 310 266
-0.011109119 0.704 -0.032093015 3.9550738e-39 311 266
-0.0098747732 0.704 -0.032093015 4.0472695e-39 312 266
-0.0086404262 0.704 -0.032093015 4.1394651e-39 313 266
-0.0074060797 0.704 -0.032093015 4.3231361e-39 314 266
-0.0061892662 0.70599997 -0.032184184 4.4153317e-39 315 266
-0.0049514128 0.70599997 -0.032184184 4.4153317e-39 316 266
-0.0037135598 0.70599997 -0.032184184 4.5075273e-39 317 266
-0.0024757064 0.70599997 -0.032184184 4.6911955e-39 318 266
-0.0012378532 0.70599997 -0.032184184 4.6911955e-39 319 266
0 0.708 -0.03227536 4.7826695e-39 320 266
0.00124136 0.708 -0.03227536 4.7826695e-39 321 266
0.00248272 0.708 -0.03227536 4.6911955e-39 322 266
0.00372408 0.708 -0.03227536 4.9677838e-39 323 266
0.0049794666 0.70999998 -0.032366529 5.1521779e-39 324 266
0.0062243328 0.70999998 -0.032366529 5.428406e-39 325 266
0.0074691991 0.70999998 -0.032366529 5.428406e-39 326 266
0.0087140659 0.70999998 -0.032366529 5.5206017e-39 327 266
0.0099729598 0.71100003 -0.032412119 5.7039195e-39 328 266
0.01121958 0.71100003 -0.032412119 5.5198884e-39 329 266
0.012518799 0.71399999 -0.032548878 5.6131658e-39 330 266
0.013828539 0.71700001 -0.032685637 5.8901129e-39 331 266
0.015085679 0.71700001 -0.032685637 6.628031e-39 332 266
0.016342819 0.71700001 -0.032685637 6.9964534e-39 333 266
0.017599959 0.71700001 -0.032685637 8.0091662e-39 334 266
0.018857099 0.71700001 -0.032685637 7.9169706e-39 335 266
0.020114239 0.71700001 -0.032685637 8.4625984e-39 336 266
0.021371379 0.71700001 -0.032685637 7.9097833e-39 337 266
-0.055699892 0.722 -0.034179479 1.1325294e-38 276 267
-0.054283202 0.72000003 -0.034084801 7.9140559e-39 277 267
-0.05294716 0.71899998 -0.03403746 6.4454124e-39 278 267
-0.051542737 0.71700001 -0.033942781 5.9844343e-39 279 267
-0.0502856 0.71700001 -0.033942781 4.6994632e-39 280 267
-0.048960082 0.71600002 -0.03389544 4.3303205e-39 281 267
-0.047571439 0.71399999 -0.033800758 4.5132699e-39 282 267
-0.046319555 0.71399999 -0.033800758 4.4210742e-39 283 267
-0.045004558 0.713 -0.033753417 4.2370389e-39 284 267
-0.043631699 0.71100003 -0.033658739 4.0522889e-39 285 267
-0.042385083 0.71100003 -0.033658739 4.3260017e-39 286 267
-0.041080594 0.70999998 -0.033611398 4.3260017e-39 287 267
-0.039835732 0.70999998 -0.033611398 3.7749958e-39 288 267
-0.038482159 0.708 -0.033516716 3.4987676e-39 289 267
-0.0372408 0.708 -0.033516716 2.948112e-39 290 267
-0.035948593 0.70700002 -0.033469379 2.8559163e-39 291 267
-0.034708988 0.70700002 -0.033469379 2.6715251e-39 292 267
-0.033422034 0.70599997 -0.033422034 2.579328e-39 293 267
-0.032184184 0.70599997 -0.033422034 2.5782532e-39 294 267
-0.030946331 0.70599997 -0.033422034 2.4860576e-39 295 267
-0.029708479 0.70599997 -0.033422034 2.393862e-39 296 267
-0.028389972 0.704 -0.03332736 2.393862e-39 297 267
-0.027155625 0.704 -0.03332736 2.393862e-39 298 267
-0.02592128 0.704 -0.03332736 2.393862e-39 299 267
-0.024686933 0.704 -0.03332736 2.6693727e-39 300 267
-0.023452586 0.704 -0.03332736 2.4853416e-39 301 267
-0.022218239 0.704 -0.03332736 2.9441617e-39 302 267
-0.020983893 0.704 -0.03332736 3.1289131e-39 303 267
-0.019749546 0.704 -0.03332736 3.4036993e-39 304 267
-0.018515198 0.704 -0.03332736 3.4962537e-39 305 267
-0.017280852 0.704 -0.03332736 3.6795659e-39 306 267
-0.016046507 0.704 -0.03332736 3.6795659e-39 307 267
-0.014854239 0.70599997 -0.033422034 3.8628782e-39 308 267
-0.013616386 0.70599997 -0.033422034 3.6788471e-39 309 267
-0.012343466 0.704 -0.03332736 4.1380232e-39 310 267
-0.011109119 0.704 -0.03332736 4.2302188e-39 311 267
-0.0098747732 0.704 -0.03332736 4.2309348e-39 312 267
-0.0086404262 0.704 -0.03332736 4.3231305e-39 313 267
-0.0074271196 0.70599997 -0.033422034 4.414966e-39 314 267
-0.0061892662 0.70599997 -0.033422034 4.414966e-39 315 267
-0.0049514128 0.70599997 -0.033422034 4.5979251e-39 316 267
-0.0037135598 0.70599997 -0.033422034 4.7823164e-39 317 267
-0.0024757064 0.70599997 -0.033422034 4.6908396e-39 318 267
-0.0012378532 0.70599997 -0.033422034 4.6908396e-39 319 267
0 0.708 -0.033516716 4.7826723e-39 320 267
0.00124136 0.708 -0.033516716 4.7826723e-39 321 267
0.00248272 0.708 -0.033516716 4.7833926e-39 322 267
0.00372408 0.708 -0.033516716 4.9677838e-39 323 267
0.0049794666 0.70999998 -0.033611398 5.152531e-39 324 267
0.0062243328 0.70999998 -0.033611398 5.4287592e-39 325 267
0.0074691991 0.70999998 -0.033611398 5.7042671e-39 326 267
0.0087140659 0.70999998 -0.033611398 5.7042671e-39 327 267
0.0099729598 0.71100003 -0.033658739 5.610998e-39 328 267
0.011251139 0.713 -0.033753417 5.5188024e-39 329 267
0.012518799 0.71399999 -0.033800758 6.0694609e-39 330 267
0.013828539 0.71700001 -0.033942781 6.4382448e-39 331 267
0.01512776 0.71899998 -0.03403746 6.8992201e-39 332 267
0.016388407 0.71899998 -0.03403746 7.5445895e-39 333 267
0.017649053 0.71899998 -0.03403746 7.8222512e-39 334 267
0.018909698 0.71899998 -0.03403746 7.3616332e-39 335 267
0.020170346 0.71899998 -0.03403746 8.1824059e-39 336 267
-0.056085624 0.727 -0.035690852 1.2710381e-38 276 268
-0.054433983 0.722 -0.035445385 8.0084039e-39 277 268
-0.053168077 0.722 -0.035445385 6.7216308e-39 278 268
-0.05168651 0.71899998 -0.035298105 6.4450425e-39 279 268
-0.050425861 0.71899998 -0.035298105 5.2508321e-39 280 268
-0.04902846 0.71700001 -0.035199918 4.7902127e-39 281 268
-0.047704693 0.71600002 -0.035150826 4.6972954e-39 282 268
-0.046319555 0.71399999 -0.035052639 4.6972954e-39 283 268
-0.045004558 0.713 -0.035003547 4.7876903e-39 284 268
-0.043631699 0.71100003 -0.034905359 4.6032977e-39 285 268
-0.042385083 0.71100003 -0.034905359 4.7848219e-39 286 268
-0.041080594 0.70999998 -0.034856264 4.7848219e-39 287 268
-0.039835732 0.70999998 -0.034856264 4.3260045e-39 288 268
-0.038482159 0.708 -0.034758076 4.3260045e-39 289 268
-0.0372408 0.708 -0.034758076 3.958294e-39 290 268
-0.03599944 0.708 -0.034758076 3.6820673e-39 291 268
-0.034708988 0.70700002 -0.034708988 3.5895157e-39 292 268
-0.033469379 0.70700002 -0.034708988 3.4973201e-39 293 268
-0.032184184 0.70599997 -0.034659892 2.9459498e-39 294 268
-0.030946331 0.70599997 -0.034659892 2.8533954e-39 295 268
-0.029708479 0.70599997 -0.034659892 2.6697258e-39 296 268
-0.028470624 0.70599997 -0.034659892 2.6697258e-39 297 268
-0.027232772 0.70599997 -0.034659892 2.6693699e-39 298 268
-0.02592128 0.704 -0.034561705 2.6693699e-39 299 268
-0.024686933 0.704 -0.034561705 2.6693699e-39 300 268
-0.023452586 0.704 -0.034561705 2.6693699e-39 301 268
-0.022218239 0.704 -0.034561705 2.6693699e-39 302 268
-0.020983893 0.704 -0.034561705 2.8541213e-39 303 268
-0.019749546 0.704 -0.034561705 3.4036993e-39 304 268
-0.018515198 0.704 -0.034561705 3.4036993e-39 305 268
-0.017280852 0.704 -0.034561705 3.9550738e-39 306 268
-0.016046507 0.704 -0.034561705 3.8628782e-39 307 268
-0.014854239 0.70599997 -0.034659892 3.9547109e-39 308 268
-0.013616386 0.70599997 -0.034659892 3.9547109e-39 309 268
-0.012378532 0.70599997 -0.034659892 4.2302188e-39 310 268
-0.011140679 0.70599997 -0.034659892 4.2302188e-39 311 268
-0.0099028256 0.70599997 -0.034659892 4.2302188e-39 312 268
-0.0086649731 0.70599997 -0.034659892 4.3224144e-39 313 268
-0.0074271196 0.70599997 -0.034659892 4.3224144e-39 314 268
-0.0061892662 0.70599997 -0.034659892 4.41461e-39 315 268
-0.0049514128 0.70599997 -0.034659892 4.6904767e-39 316 268
-0.0037188199 0.70700002 -0.034708988 4.7826723e-39 317 268
-0.0024792133 0.70700002 -0.034708988 4.9659846e-39 318 268
-0.00124136 0.708 -0.034758076 4.9659846e-39 319 268
0 0.708 -0.034758076 4.8748665e-39 320 268
0.0012448666 0.70999998 -0.034856264 4.8748665e-39 321 268
0.00248272 0.708 -0.034758076 5.1503772e-39 322 268
0.00372408 0.708 -0.034758076 5.3351272e-39 323 268
0.0049794666 0.70999998 -0.034856264 5.3365621e-39 324 268
0.0062243328 0.70999998 -0.034856264 5.4287592e-39 325 268
0.0074691991 0.70999998 -0.034856264 5.6113512e-39 326 268
0.0087140659 0.70999998 -0.034856264 5.5191555e-39 327 268
0.0099729598 0.71100003 -0.034905359 5.3336951e-39 328 268
0.011251139 0.713 -0.035003547 5.0571096e-39 329 268
0.012553867 0.71600002 -0.035150826 5.0581998e-39 330 268
0.013828539 0.71700001 -0.035199918 5.4269837e-39 331 268
0.01512776 0.71899998 -0.035298105 5.7968466e-39 332 268
0.016388407 0.71899998 -0.035298105 6.1652704e-39 333 268
0.017649053 0.71899998 -0.035298105 6.4404154e-39 334 268
0.018909698 0.71899998 -0.035298105 6.1634684e-39 335 268
0.020170346 0.71899998 -0.035298105 6.9860334e-39 336 268
0.021430992 0.71899998 -0.035298105 6.6168907e-39 337 268
-0.056085624 0.727 -0.036965527 1.42813e-38 276 269
-0.054509375 0.72299999 -0.036762137 8.3807794e-39 277 269
-0.053241719 0.72299999 -0.036762137 7.1804383e-39 278 269
-0.051902171 0.722 -0.03671129 7.1804383e-39 279 269
-0.050425861 0.71899998 -0.036558751 5.3437494e-39 280 269
-0.04902846 0.71700001 -0.036457058 4.7905756e-39 281 269
-0.047704693 0.71600002 -0.036406212 4.8809734e-39 282 269
-0.046319555 0.71399999 -0.036304519 4.8809734e-39 283 269
-0.045004558 0.713 -0.036253672 4.7880589e-39 284 269
-0.043631699 0.71100003 -0.036151983 4.6958633e-39 285 269
-0.042385083 0.71100003 -0.036151983 4.8777392e-39 286 269
-0.041080594 0.70999998 -0.036101133 4.7855436e-39 287 269
-0.039835732 0.70999998 -0.036101133 4.5103958e-39 288 269
-0.038590867 0.70999998 -0.036101133 4.5103958e-39 289 269
-0.0372408 0.708 -0.03599944 4.1426895e-39 290 269
-0.03599944 0.708 -0.03599944 4.0504938e-39 291 269
-0.034758076 0.708 -0.03599944 3.6824302e-39 292 269
-0.033469379 0.70700002 -0.035948593 3.5902346e-39 293 269
-0.032229774 0.70700002 -0.035948593 3.1299795e-39 294 269
-0.030946331 0.70599997 -0.035897743 2.945947e-39 295 269
-0.029708479 0.70599997 -0.035897743 2.5786092e-39 296 269
-0.028470624 0.70599997 -0.035897743 2.4864135e-39 297 269
-0.027155625 0.704 -0.035796054 2.6693699e-39 298 269
-0.02592128 0.704 -0.035796054 2.6693699e-39 299 269
-0.024686933 0.704 -0.035796054 2.6697258e-39 300 269
-0.023452586 0.704 -0.035796054 2.7619214e-39 301 269
-0.022218239 0.704 -0.035796054 2.8533982e-39 302 269
-0.020983893 0.704 -0.035796054 2.9455938e-39 303 269
-0.019749546 0.704 -0.035796054 3.4040538e-39 304 269
-0.018515198 0.704 -0.035796054 3.4962509e-39 305 269
-0.017280852 0.704 -0.035796054 4.0469065e-39 306 269
-0.016046507 0.704 -0.035796054 4.0469065e-39 307 269
-0.014854239 0.70599997 -0.035897743 4.0469065e-39 308 269
-0.013616386 0.70599997 -0.035897743 3.9547109e-39 309 269
-0.012378532 0.70599997 -0.035897743 4.2302188e-39 310 269
-0.011140679 0.70599997 -0.035897743 4.2302188e-39 311 269
-0.0099028256 0.70599997 -0.035897743 4.3231305e-39 312 269
-0.0086649731 0.70599997 -0.035897743 4.3231305e-39 313 269
-0.0074376399 0.70700002 -0.035948593 4.5982782e-39 314 269
-0.0061980332 0.70700002 -0.035948593 4.5982782e-39 315 269
-0.0049584266 0.70700002 -0.035948593 4.41461e-39 316 269
-0.0037188199 0.70700002 -0.035948593 4.6911955e-39 317 269
-0.00248272 0.708 -0.03599944 5.0581788e-39 318 269
-0.0012448666 0.70999998 -0.036101133 5.0581788e-39 319 269
0 0.70999998 -0.036101133 5.0589005e-39 320 269
0.0012448666 0.70999998 -0.036101133 5.0589005e-39 321 269
0.0024897333 0.70999998 -0.036101133 5.3347713e-39 322 269
0.0037345996 0.70999998 -0.036101133 5.5188024e-39 323 269
0.0049794666 0.70999998 -0.036101133 5.703551e-39 324 269
0.0062330998 0.71100003 -0.036151983 5.703551e-39 325 269
0.0074797203 0.71100003 -0.036151983 5.3358461e-39 326 269
0.0087263398 0.71100003 -0.036151983 5.0589005e-39 327 269
0.0099729598 0.71100003 -0.036151983 4.9638308e-39 328 269
0.011251139 0.713 -0.036253672 4.7797996e-39 329 269
0.012553867 0.71600002 -0.036406212 4.8727169e-39 330 269
0.013828539 0.71700001 -0.036457058 5.5180863e-39 331 269
0.01512776 0.71899998 -0.036558751 5.7953935e-39 332 269
0.016388407 0.71899998 -0.036558751 5.8879479e-39 333 269
0.017649053 0.71899998 -0.036558751 6.1616551e-39 334 269
0.018909698 0.71899998 -0.036558751 5.7010357e-39 335 269
0.020170346 0.71899998 -0.036558751 6.9842187e-39 336 269
0.021430992 0.71899998 -0.036558751 7.1682498e-39 337 269
0.024085538 0.72299999 -0.036762137 7.8085633e-39 339 269
-0.054509375 0.72299999 -0.038029801 1.1057695e-38 277 270
-0.053241719 0.72299999 -0.038029801 8.5601287e-39 278 270
-0.051902171 0.722 -0.0379772 7.8225637e-39 279 270
-0.050636265 0.722 -0.0379772 6.3524937e-39 280 270
-0.049165215 0.71899998 -0.037819397 5.891517e-39 281 270
-0.04777132 0.71700001 -0.037714198 5.0657206e-39 282 270
-0.046449307 0.71600002 -0.037661601 4.8813293e-39 283 270
-0.045067675 0.71399999 -0.037556399 4.8806104e-39 284 270
-0.043754432 0.713 -0.037503798 4.7880561e-39 285 270
-0.042385083 0.71100003 -0.037398599 4.7862596e-39 286 270
-0.041138459 0.71100003 -0.037398599 4.6022285e-39 287 270
-0.039835732 0.70999998 -0.037345998 4.5100329e-39 288 270
-0.038590867 0.70999998 -0.037345998 4.5100329e-39 289 270
-0.0372408 0.708 -0.0372408 4.4181974e-39 290 270
-0.03599944 0.708 -0.0372408 4.4181974e-39 291 270
-0.034758076 0.708 -0.0372408 4.050491e-39 292 270
-0.033516716 0.708 -0.0372408 3.6820673e-39 293 270
-0.032229774 0.70700002 -0.037188202 3.3140106e-39 294 270
-0.030990168 0.70700002 -0.037188202 3.1292592e-39 295 270
-0.029708479 0.70599997 -0.037135597 2.7619214e-39 296 270
-0.028470624 0.70599997 -0.037135597 2.6697258e-39 297 270
-0.027155625 0.704 -0.037030395 2.853401e-39 298 270
-0.02592128 0.704 -0.037030395 2.853401e-39 299 270
-0.024686933 0.704 -0.037030395 3.0367105e-39 300 270
-0.023452586 0.704 -0.037030395 3.0367105e-39 301 270
-0.022218239 0.704 -0.037030395 3.3125771e-39 302 270
-0.020983893 0.704 -0.037030395 3.3125771e-39 303 270
-0.019749546 0.704 -0.037030395 3.4040538e-39 304 270
-0.018515198 0.704 -0.037030395 3.680282e-39 305 270
-0.017280852 0.704 -0.037030395 4.2309377e-39 306 270
-0.016046507 0.704 -0.037030395 4.2309377e-39 307 270
-0.014854239 0.70599997 -0.037135597 4.0469037e-39 308 270
-0.013616386 0.70599997 -0.037135597 4.0469037e-39 309 270
-0.012378532 0.70599997 -0.037135597 4.5060826e-39 310 270
-0.011140679 0.70599997 -0.037135597 4.5982782e-39 311 270
-0.0099028256 0.70599997 -0.037135597 4.4149632e-39 312 270
-0.008677247 0.70700002 -0.037188202 4.4149632e-39 313 270
-0.0074376399 0.70700002 -0.037188202 4.5982782e-39 314 270
-0.0061980332 0.70700002 -0.037188202 4.5982782e-39 315 270
-0.0049584266 0.70700002 -0.037188202 4.5979223e-39 316 270
-0.00372408 0.708 -0.0372408 4.6904767e-39 317 270
-0.00248272 0.708 -0.0372408 4.9659846e-39 318 270
-0.0012448666 0.70999998 -0.037345998 5.2425728e-39 319 270
0 0.70999998 -0.037345998 5.1503772e-39 320 270
0.0012448666 0.70999998 -0.037345998 5.3351272e-39 321 270
0.0024897333 0.70999998 -0.037345998 5.6106351e-39 322 270
0.0037345996 0.70999998 -0.037345998 5.8868633e-39 323 270
0.0049794666 0.70999998 -0.037345998 5.6113512e-39 324 270
0.0062330998 0.71100003 -0.037398599 5.6113512e-39 325 270
0.0074797203 0.71100003 -0.037398599 5.2425728e-39 326 270
0.0087263398 0.71100003 -0.037398599 4.5972034e-39 327 270
0.0099729598 0.71100003 -0.037398599 4.4117402e-39 328 270
0.011251139 0.713 -0.037503798 4.5957713e-39 329 270
0.012553867 0.71600002 -0.037661601 4.5068057e-39 330 270
0.013828539 0.71700001 -0.037714198 5.1521751e-39 331 270
0.01512776 0.71899998 -0.037819397 5.5209548e-39 332 270
0.0164112 0.72000003 -0.037871998 5.5209548e-39 333 270
0.017649053 0.71899998 -0.037819397 5.6106351e-39 334 270
0.018909698 0.71899998 -0.037819397 5.5184395e-39 335 270
0.020198401 0.72000003 -0.037871998 6.9867368e-39 336 270
0.021460801 0.72000003 -0.037871998 8.0927242e-39 337 270
0.02281788 0.72299999 -0.038029801 1.0203497e-38 338 270
0.024085538 0.72299999 -0.038029801 1.0295693e-38 339 270
0.025423333 0.72500002 -0.038135 8.7434858e-39 340 270
-0.054509375 0.72299999 -0.039297458 1.4193438e-38 277 271
-0.053241719 0.72299999 -0.039297458 1.067883e-38 278 271
-0.051902171 0.722 -0.039243106 8.0973527e-39 279 271
-0.050636265 0.722 -0.039243106 6.7201846e-39 280 271
-0.04937036 0.722 -0.039243106 6.443239e-39 281 271
-0.04790457 0.71899998 -0.039080046 5.24903e-39 282 271
-0.046449307 0.71600002 -0.038916986 5.0649989e-39 283 271
-0.045193922 0.71600002 -0.038916986 4.6054627e-39 284 271
-0.043754432 0.713 -0.038753927 4.4210714e-39 285 271
-0.042385083 0.71100003 -0.038645219 4.8777364e-39 286 271
-0.041138459 0.71100003 -0.038645219 4.7855408e-39 287 271
-0.039835732 0.70999998 -0.038590867 4.3256486e-39 288 271
-0.038590867 0.70999998 -0.038590867 4.3256486e-39 289 271
-0.037345998 0.70999998 -0.038590867 4.3270835e-39 290 271
-0.036101133 0.70999998 -0.038590867 4.2348879e-39 291 271
-0.034758076 0.708 -0.038482159 4.050491e-39 292 271
-0.033516716 0.708 -0.038482159 3.7742629e-39 293 271
-0.032229774 0.70700002 -0.038427804 3.4980389e-39 294 271
-0.030990168 0.70700002 -0.038427804 3.2218122e-39 295 271
-0.029750559 0.70700002 -0.038427804 2.9455938e-39 296 271
-0.028470624 0.70599997 -0.038373452 2.8533982e-39 297 271
-0.027232772 0.70599997 -0.038373452 2.853401e-39 298 271
-0.025994917 0.70599997 -0.038373452 2.853401e-39 299 271
-0.024757065 0.70599997 -0.038373452 2.9455938e-39 300 271
-0.023519212 0.70599997 -0.038373452 2.8533982e-39 301 271
-0.022281358 0.70599997 -0.038373452 3.1289061e-39 302 271
-0.021043506 0.70599997 -0.038373452 3.1289061e-39 303 271
-0.019749546 0.704 -0.038264744 3.6795631e-39 304 271
-0.018515198 0.704 -0.038264744 3.7717588e-39 305 271
-0.017329946 0.70599997 -0.038373452 4.2309377e-39 306 271
-0.016092092 0.70599997 -0.038373452 4.2309377e-39 307 271
-0.014854239 0.70599997 -0.038373452 4.4138842e-39 308 271
-0.013616386 0.70599997 -0.038373452 4.5060798e-39 309 271
-0.012378532 0.70599997 -0.038373452 4.4149604e-39 310 271
-0.011140679 0.70599997 -0.038373452 4.5075147e-39 311 271
-0.0099028256 0.70599997 -0.038373452 4.5075147e-39 312 271
-0.008677247 0.70700002 -0.038427804 4.5075147e-39 313 271
-0.0074376399 0.70700002 -0.038427804 4.414966e-39 314 271
-0.0061980332 0.70700002 -0.038427804 4.3224116e-39 315 271
-0.0049584266 0.70700002 -0.038427804 4.3224172e-39 316 271
-0.00372408 0.708 -0.038482159 4.5068085e-39 317 271
-0.00248272 0.708 -0.038482159 4.7823206e-39 318 271
-0.0012448666 0.70999998 -0.038590867 5.0585473e-39 319 271
0 0.70999998 -0.038590867 5.1510989e-39 320 271
0.0012448666 0.70999998 -0.038590867 5.2432945e-39 321 271
0.0024897333 0.70999998 -0.038590867 5.611354e-39 322 271
0.0037345996 0.70999998 -0.038590867 5.703551e-39 323 271
0.0049794666 0.70999998 -0.038590867 5.5191583e-39 324 271
0.0062330998 0.71100003 -0.038645219 5.1503772e-39 325 271
0.0074797203 0.71100003 -0.038645219 4.8727169e-39 326 271
0.0087263398 0.71100003 -0.038645219 4.4117402e-39 327 271
0.0099729598 0.71100003 -0.038645219 4.0447513e-39 328 271
0.011251139 0.713 -0.038753927 4.4135338e-39 329 271
0.012553867 0.71600002 -0.038916986 4.5085979e-39 330 271
0.013828539 0.71700001 -0.038971342 4.8777392e-39 331 271
0.01512776 0.71899998 -0.039080046 5.5213107e-39 332 271
0.0164112 0.72000003 -0.039134402 5.5213107e-39 333 271
0.017673599 0.72000003 -0.039134402 5.5205891e-39 334 271
0.0189886 0.722 -0.039243106 5.8893702e-39 335 271
0.020282559 0.72299999 -0.039297458 6.9917689e-39 336 271
0.021550218 0.72299999 -0.039297458 8.0981164e-39 337 271
0.02281788 0.72299999 -0.039297458 1.0023444e-38 338 271
0.024152167 0.72500002 -0.039406165 1.2604922e-38 339 271
0.025423333 0.72500002 -0.039406165 1.0509614e-38 340 271
-0.054660168 0.72500002 -0.040677335 1.6409021e-38 277 272
-0.053388998 0.72500002 -0.040677335 1.3354304e-38 278 272
-0.051974058 0.72299999 -0.040565118 9.2976966e-39 279 272
-0.050706398 0.72299999 -0.040565118 6.8109355e-39 280 272
-0.04937036 0.722 -0.040509012 6.5339885e-39 281 272
-0.0479712 0.72000003 -0.040396802 5.0649989e-39 282 272
-0.046643924 0.71899998 -0.040340692 5.0649989e-39 283 272
-0.045257039 0.71700001 -0.040228479 4.6976639e-39 284 272
-0.043938532 0.71600002 -0.040172372 4.5129139e-39 285 272
-0.042563915 0.71399999 -0.040060159 4.6018726e-39 286 272
-0.041138459 0.71100003 -0.039891839 4.6018726e-39 287 272
-0.039891839 0.71100003 -0.039891839 4.1419734e-39 288 272
-0.038645219 0.71100003 -0.039891839 4.3260045e-39 289 272
-0.037345998 0.70999998 -0.039835732 4.2348879e-39 290 272
-0.036101133 0.70999998 -0.039835732 4.1426923e-39 291 272
-0.034856264 0.70999998 -0.039835732 4.1419734e-39 292 272
-0.033516716 0.708 -0.039723519 3.957222e-39 293 272
-0.03227536 0.708 -0.039723519 3.2232541e-39 294 272
-0.030990168 0.70700002 -0.039667413 3.0388629e-39 295 272
-0.029750559 0.70700002 -0.039667413 2.7630018e-39 296 272
-0.028510952 0.70700002 -0.039667413 2.5786092e-39 297 272
-0.027271347 0.70700002 -0.039667413 2.853401e-39 298 272
-0.025994917 0.70599997 -0.039611302 2.853401e-39 299 272
-0.024757065 0.70599997 -0.039611302 2.7619214e-39 300 272
-0.023519212 0.70599997 -0.039611302 2.7619214e-39 301 272
-0.022281358 0.70599997 -0.039611302 3.4040538e-39 302 272
-0.021073313 0.70700002 -0.039667413 3.4040538e-39 303 272
-0.019805651 0.70599997 -0.039611302 3.6788471e-39 304 272
-0.018567799 0.70599997 -0.039611302 3.9550738e-39 305 272
-0.017329946 0.70599997 -0.039611302 4.2309348e-39 306 272
-0.016092092 0.70599997 -0.039611302 4.2309348e-39 307 272
-0.01487528 0.70700002 -0.039667413 4.3227675e-39 308 272
-0.013635674 0.70700002 -0.039667413 4.3227675e-39 309 272
-0.012396066 0.70700002 -0.039667413 4.5075147e-39 310 272
-0.011156459 0.70700002 -0.039667413 4.5075147e-39 311 272
-0.0099168532 0.70700002 -0.039667413 4.5075147e-39 312 272
-0.008677247 0.70700002 -0.039667413 4.5075147e-39 313 272
-0.0074376399 0.70700002 -0.039667413 4.414966e-39 314 272
-0.0062067998 0.708 -0.039723519 4.3224116e-39 315 272
-0.0049654399 0.708 -0.039723519 4.5057295e-39 316 272
-0.00372408 0.708 -0.039723519 4.6901207e-39 317 272
-0.00248272 0.708 -0.039723519 4.7833926e-39 318 272
-0.0012448666 0.70999998 -0.039835732 4.9677838e-39 319 272
0 0.70999998 -0.039835732 5.2425728e-39 320 272
0.0012448666 0.70999998 -0.039835732 5.611354e-39 321 272
0.0024897333 0.70999998 -0.039835732 5.6113512e-39 322 272
0.0037345996 0.70999998 -0.039835732 5.5191555e-39 323 272
0.0049794666 0.70999998 -0.039835732 5.425525e-39 324 272
0.0062330998 0.71100003 -0.039891839 5.0563823e-39 325 272
0.0074797203 0.71100003 -0.039891839 4.3202634e-39 326 272
0.0087263398 0.71100003 -0.039891839 3.9518396e-39 327 272
0.010001013 0.713 -0.040004052 3.6788429e-39 328 272
0.011266919 0.71399999 -0.040060159 4.0476254e-39 329 272
0.0125714 0.71700001 -0.040228479 4.6922703e-39 330 272
0.013828539 0.71700001 -0.040228479 5.1532471e-39 331 272
0.01512776 0.71899998 -0.040340692 5.704623e-39 332 272
0.0164112 0.72000003 -0.040396802 5.8890142e-39 333 272
0.017722692 0.722 -0.040509012 5.430913e-39 334 272
0.0189886 0.722 -0.040509012 5.8915324e-39 335 272
0.020282559 0.72299999 -0.040565118 6.1681249e-39 336 272
0.021550218 0.72299999 -0.040565118 6.8134943e-39 337 272
0.02281788 0.72299999 -0.040565118 7.5560984e-39 338 272
0.024152167 0.72500002 -0.040677335 1.4194184e-38 339 272
-0.053241719 0.72299999 -0.041832779 1.4929556e-38 278 273
-0.051974058 0.72299999 -0.041832779 1.0965144e-38 279 273
-0.050706398 0.72299999 -0.041832779 8.649809e-39 280 273
-0.04937036 0.722 -0.041774917 7.4512673e-39 281 273
-0.048104454 0.722 -0.041774917 5.616372e-39 282 273
-0.0467088 0.72000003 -0.041659199 5.4319794e-39 283 273
-0.045383278 0.71899998 -0.041601337 4.972453e-39 284 273
-0.043999899 0.71700001 -0.041485619 4.6958661e-39 285 273
-0.042563915 0.71399999 -0.041312039 4.6025942e-39 286 273
-0.041254178 0.713 -0.041254178 4.3256486e-39 287 273
-0.040004052 0.713 -0.041254178 4.0501435e-39 288 273
-0.038645219 0.71100003 -0.041138459 3.9579465e-39 289 273
-0.037398599 0.71100003 -0.041138459 3.5924024e-39 290 273
-0.036101133 0.70999998 -0.041080594 3.4083712e-39 291 273
-0.034856264 0.70999998 -0.041080594 3.8671816e-39 292 273
-0.033611398 0.70999998 -0.041080594 3.8671816e-39 293 273
-0.03227536 0.708 -0.040964879 3.5916695e-39 294 273
-0.031034 0.708 -0.040964879 3.3147239e-39 295 273
-0.02979264 0.708 -0.040964879 2.9466672e-39 296 273
-0.028510952 0.70700002 -0.040907022 2.8544702e-39 297 273
-0.027271347 0.70700002 -0.040907022 2.9455938e-39 298 273
-0.02603174 0.70700002 -0.040907022 2.9455938e-39 299 273
-0.024792133 0.70700002 -0.040907022 3.3125771e-39 300 273
-0.023519212 0.70599997 -0.040849157 3.1281872e-39 301 273
-0.022281358 0.70599997 -0.040849157 3.1289103e-39 302 273
-0.021073313 0.70700002 -0.040907022 3.1289103e-39 303 273
-0.019833706 0.70700002 -0.040907022 3.8628782e-39 304 273
-0.018594101 0.70700002 -0.040907022 4.0472695e-39 305 273
-0.017354494 0.70700002 -0.040907022 4.3231305e-39 306 273
-0.016114887 0.70700002 -0.040907022 4.3231305e-39 307 273
-0.01487528 0.70700002 -0.040907022 4.506077e-39 308 273
-0.013635674 0.70700002 -0.040907022 4.5986314e-39 309 273
-0.012396066 0.70700002 -0.040907022 4.4149604e-39 310 273
-0.011156459 0.70700002 -0.040907022 4.5075147e-39 311 273
-0.0099168532 0.70700002 -0.040907022 4.5071588e-39 312 273
-0.008677247 0.70700002 -0.040907022 4.4149632e-39 313 273
-0.0074481601 0.708 -0.040964879 4.3224116e-39 314 273
-0.0062067998 0.708 -0.040964879 4.414966e-39 315 273
-0.0049654399 0.708 -0.040964879 4.5071616e-39 316 273
-0.00372408 0.708 -0.040964879 4.7833898e-39 317 273
-0.00248272 0.708 -0.040964879 4.8755854e-39 318 273
-0.0012448666 0.70999998 -0.041080594 4.967781e-39 319 273
0 0.70999998 -0.041080594 5.2436476e-39 320 273
0.0012448666 0.70999998 -0.041080594 5.3358433e-39 321 273
0.0024897333 0.70999998 -0.041080594 5.3358461e-39 322 273
0.0037345996 0.70999998 -0.041080594 5.0589005e-39 323 273
0.0049864799 0.71100003 -0.041138459 4.7805213e-39 324 273
0.0062330998 0.71100003 -0.041138459 4.4117402e-39 325 273
0.0074797203 0.71100003 -0.041138459 3.8614391e-39 326 273
0.0087508867 0.713 -0.041254178 3.7692434e-39 327 273
0.01001504 0.71399999 -0.041312039 3.4047741e-39 328 273
0.011266919 0.71399999 -0.041312039 3.681361e-39 329 273
0.012553867 0.71600002 -0.041427758 3.958671e-39 330 273
0.013828539 0.71700001 -0.041485619 4.3274521e-39 331 273
0.01512776 0.71899998 -0.041601337 5.153617e-39 332 273
0.0164112 0.72000003 -0.041659199 5.3380083e-39 333 273
0.017722692 0.722 -0.041774917 5.9830119e-39 334 273
0.0189886 0.722 -0.041774917 6.4439887e-39 335 273
0.020282559 0.72299999 -0.041832779 6.3543056e-39 336 273
0.021550218 0.72299999 -0.041832779 8.1063827e-39 337 273
0.02281788 0.72299999 -0.041832779 1.2157597e-38 338 273
0.024152167 0.72500002 -0.041948501 1.8058117e-38 339 273
-0.051974058 0.72299999 -0.043100435 1.3917577e-38 279 274
-0.050706398 0.72299999 -0.043100435 1.0769232e-38 280 274
-0.049438741 0.72299999 -0.043100435 8.2799517e-39 281 274
-0.048104454 0.722 -0.043040827 6.625838e-39 282 274
-0.0467088 0.72000003 -0.042921603 6.625838e-39 283 274
-0.045446403 0.72000003 -0.042921603 4.9728187e-39 284 274
-0.044122629 0.71899998 -0.042861983 4.6043963e-39 285 274
-0.042683143 0.71600002 -0.042683143 4.3267332e-39 286 274
-0.041312039 0.71399999 -0.042563915 4.2345376e-39 287 274
-0.040060159 0.71399999 -0.042563915 3.7749958e-39 288 274
-0.038753927 0.713 -0.042504307 3.7749958e-39 289 274
-0.037398599 0.71100003 -0.042385083 3.5920394e-39 290 274
-0.036151983 0.71100003 -0.042385083 3.6842351e-39 291 274
-0.034856264 0.70999998 -0.042325463 3.9597402e-39 292 274
-0.033611398 0.70999998 -0.042325463 3.8675445e-39 293 274
-0.032366529 0.70999998 -0.042325463 3.3165273e-39 294 274
-0.031034 0.708 -0.042206239 3.0395817e-39 295 274
-0.02979264 0.708 -0.042206239 3.1299823e-39 296 274
-0.02855128 0.708 -0.042206239 2.9459498e-39 297 274
-0.027309919 0.708 -0.042206239 3.1296264e-39 298 274
-0.02603174 0.70700002 -0.042146627 2.9455938e-39 299 274
-0.024792133 0.70700002 -0.042146627 3.1289061e-39 300 274
-0.023552528 0.70700002 -0.042146627 3.1289061e-39 301 274
-0.022312919 0.70700002 -0.042146627 3.4040538e-39 302 274
-0.021073313 0.70700002 -0.042146627 3.4962509e-39 303 274
-0.019833706 0.70700002 -0.042146627 4.0469065e-39 304 274
-0.018594101 0.70700002 -0.042146627 4.3231333e-39 305 274
-0.017354494 0.70700002 -0.042146627 4.4156848e-39 306 274
-0.016114887 0.70700002 -0.042146627 4.3231305e-39 307 274
-0.01489632 0.708 -0.042206239 4.5979223e-39 308 274
-0.013654959 0.708 -0.042206239 4.5057267e-39 309 274
-0.0124136 0.708 -0.042206239 4.4156848e-39 310 274
-0.01117224 0.708 -0.042206239 4.4156848e-39 311 274
-0.0099308798 0.708 -0.042206239 4.5982754e-39 312 274
-0.008689519 0.708 -0.042206239 4.5982754e-39 313 274
-0.0074481601 0.708 -0.042206239 4.4149632e-39 314 274
-0.0062243328 0.70999998 -0.042325463 4.4149632e-39 315 274
-0.0049654399 0.708 -0.042206239 4.415682e-39 316 274
-0.00372408 0.708 -0.042206239 4.6000747e-39 317 274
-0.0024897333 0.70999998 -0.042325463 5.0592536e-39 318 274
-0.0012448666 0.70999998 -0.042325463 5.1514492e-39 319 274
0 0.70999998 -0.042325463 5.2429288e-39 320 274
0.0012448666 0.70999998 -0.042325463 5.3351244e-39 321 274
0.0024897333 0.70999998 -0.042325463 5.2429288e-39 322 274
0.0037398601 0.71100003 -0.042385083 4.9659818e-39 323 274
0.0049864799 0.71100003 -0.042385083 4.5961272e-39 324 274
0.0062330998 0.71100003 -0.042385083 4.4120961e-39 325 274
0.0075007593 0.713 -0.042504307 3.404051e-39 326 274
0.0087508867 0.713 -0.042504307 3.4962481e-39 327 274
0.01001504 0.71399999 -0.042563915 3.4973229e-39 328 274
0.011266919 0.71399999 -0.042563915 3.7739098e-39 329 274
0.012553867 0.71600002 -0.042683143 4.234532e-39 330 274
0.013828539 0.71700001 -0.042742759 4.6033131e-39 331 274
