# .PCD v.7 - Point Cloud Data file format
FIELDS x y z rgb imX imY
SIZE 4 4 4 4 4 4
TYPE F F F F F F
COUNT 1 1 1 1 1 1
WIDTH 832
HEIGHT 1
VIEWPOINT 0 0 0 1 0 0 0
POINTS 832
DATA ascii
0.0012606466 0.71899998 -0.018909698 9.4630064e-39 321 255
0.0025248001 0.72000003 -0.018935999 9.4626532e-39 322 255
0.0038029798 0.72299999 -0.019014901 9.5548489e-39 323 255
0.0050706398 0.72299999 -0.019014901 9.2800598e-39 324 255
0.0063733663 0.727 -0.019120099 9.2800598e-39 325 255
0.0076480396 0.727 -0.019120099 9.1896565e-39 326 255
0.0089349858 0.72799999 -0.0191464 8.1758703e-39 327 255
0.010211413 0.72799999 -0.0191464 8.3635112e-39 328 255
0.01148784 0.72799999 -0.0191464 1.3526466e-38 329 255
0.012764266 0.72799999 -0.0191464 1.4006523e-38 330 255
-0.044797666 0.73000002 -0.020478934 1.4467136e-38 285 256
-0.043517731 0.73000002 -0.020478934 1.2992355e-38 286 256
-0.042122077 0.72799999 -0.020422826 5.4323143e-39 287 256
-0.040845651 0.72799999 -0.020422826 8.8331213e-39 288 256
-0.039514873 0.727 -0.020394772 1.1875937e-38 289 256
-0.038240198 0.727 -0.020394772 1.1334299e-38 290 256
-0.036863834 0.72500002 -0.020338668 1.2625038e-38 291 256
-0.035494477 0.72299999 -0.020282559 1.2901981e-38 292 256
-0.034179479 0.722 -0.020254506 1.2256611e-38 293 256
-0.0328224 0.72000003 -0.020198401 1.3167024e-38 294 256
-0.03156 0.72000003 -0.020198401 1.1230915e-38 295 256
-0.030255521 0.71899998 -0.020170346 1.0573652e-38 296 256
-0.028914221 0.71700001 -0.020114239 9.3751127e-39 297 256
-0.027618507 0.71600002 -0.020086186 1.0198045e-38 298 256
-0.026363119 0.71600002 -0.020086186 1.0474269e-38 299 256
-0.025107734 0.71600002 -0.020086186 1.0473551e-38 300 256
-0.02378572 0.71399999 -0.020030079 1.0473551e-38 301 256
-0.022533838 0.71399999 -0.020030079 1.0380998e-38 302 256
-0.021341572 0.71600002 -0.020086186 1.0380998e-38 303 256
-0.020086186 0.71600002 -0.020086186 1.0563593e-38 304 256
-0.0188308 0.71600002 -0.020086186 1.0563593e-38 305 256
-0.017575413 0.71600002 -0.020086186 1.0197686e-38 306 256
-0.016320027 0.71600002 -0.020086186 1.0381716e-38 307 256
-0.01506464 0.71600002 -0.020086186 1.0381357e-38 308 256
-0.013809253 0.71600002 -0.020086186 1.0473551e-38 309 256
-0.012553867 0.71600002 -0.020086186 1.0381357e-38 310 256
-0.01129848 0.71600002 -0.020086186 1.0289163e-38 311 256
-0.010043093 0.71600002 -0.020086186 1.0105492e-38 312 256
-0.0087877065 0.71600002 -0.020086186 1.0105492e-38 313 256
-0.00753232 0.71600002 -0.020086186 9.7381499e-39 314 256
-0.0062769335 0.71600002 -0.020086186 9.7381499e-39 315 256
-0.0050215465 0.71600002 -0.020086186 9.7377926e-39 316 256
-0.0037714199 0.71700001 -0.020114239 9.7377926e-39 317 256
-0.0025142799 0.71700001 -0.020114239 9.4622875e-39 318 256
-0.00125714 0.71700001 -0.020114239 9.4622875e-39 319 256
0 0.71899998 -0.020170346 9.3704548e-39 320 256
0.0012606466 0.71899998 -0.020170346 9.3704548e-39 321 256
0.0025248001 0.72000003 -0.020198401 9.3704576e-39 322 256
0.0037977197 0.722 -0.020254506 9.4626532e-39 323 256
0.0050706398 0.72299999 -0.020282559 9.0041932e-39 324 256
0.0063558333 0.72500002 -0.020338668 9.0041932e-39 325 256
0.0076480396 0.727 -0.020394772 9.0049121e-39 326 256
0.0089349858 0.72799999 -0.020422826 8.6364897e-39 327 256
0.010211413 0.72799999 -0.020422826 8.7290539e-39 328 256
0.01148784 0.72799999 -0.020422826 1.1863347e-38 329 256
0.012764266 0.72799999 -0.020422826 1.335899e-38 330 256
0.014040692 0.72799999 -0.020422826 1.5940468e-38 331 256
-0.045951359 0.72799999 -0.021699252 1.5299414e-38 284 257
-0.044674929 0.72799999 -0.021699252 1.3363306e-38 285 257
-0.043398503 0.72799999 -0.021699252 1.2067509e-38 286 257
-0.042122077 0.72799999 -0.021699252 5.521619e-39 287 257
-0.040789545 0.727 -0.021669446 9.2905065e-39 288 257
-0.039514873 0.727 -0.021669446 1.3347114e-38 289 257
-0.038135 0.72500002 -0.021609833 1.3174975e-38 290 257
-0.036762137 0.72299999 -0.021550218 1.3543397e-38 291 257
-0.035494477 0.72299999 -0.021550218 1.2898731e-38 292 257
-0.034179479 0.722 -0.021520413 1.0870427e-38 293 257
-0.0328224 0.72000003 -0.021460801 1.0665156e-38 294 257
-0.031516165 0.71899998 -0.021430992 8.9137983e-39 295 257
-0.030171359 0.71700001 -0.021371379 1.0014015e-38 296 257
-0.028873893 0.71600002 -0.021341572 1.0567183e-38 297 257
-0.027618507 0.71600002 -0.021341572 1.0567181e-38 298 257
-0.026363119 0.71600002 -0.021341572 1.0290957e-38 299 257
-0.025037598 0.71399999 -0.021281958 1.0565746e-38 300 257
-0.02378572 0.71399999 -0.021281958 1.0473551e-38 301 257
-0.022533838 0.71399999 -0.021281958 1.0564669e-38 302 257
-0.021341572 0.71600002 -0.021341572 1.0472116e-38 303 257
-0.020086186 0.71600002 -0.021341572 1.0195892e-38 304 257
-0.0188308 0.71600002 -0.021341572 1.0288087e-38 305 257
-0.017575413 0.71600002 -0.021341572 1.0012939e-38 306 257
-0.016320027 0.71600002 -0.021341572 1.0012939e-38 307 257
-0.01506464 0.71600002 -0.021341572 1.0104416e-38 308 257
-0.01377068 0.71399999 -0.021281958 1.019661e-38 309 257
-0.012518799 0.71399999 -0.021281958 1.019661e-38 310 257
-0.011266919 0.71399999 -0.021281958 1.0104416e-38 311 257
-0.01001504 0.71399999 -0.021281958 9.7374325e-39 312 257
-0.0087631596 0.71399999 -0.021281958 9.7374325e-39 313 257
-0.00753232 0.71600002 -0.021341572 9.6459557e-39 314 257
-0.0062769335 0.71600002 -0.021341572 9.6459557e-39 315 257
-0.0050215465 0.71600002 -0.021341572 9.6455998e-39 316 257
-0.00376616 0.71600002 -0.021341572 9.5534041e-39 317 257
-0.0025142799 0.71700001 -0.021371379 9.3697387e-39 318 257
-0.00125714 0.71700001 -0.021371379 9.3697387e-39 319 257
0 0.71700001 -0.021371379 9.094591e-39 320 257
0.0012606466 0.71899998 -0.021430992 9.094591e-39 321 257
0.0025212932 0.71899998 -0.021430992 9.1867866e-39 322 257
0.0037872 0.72000003 -0.021460801 9.1867866e-39 323 257
0.0050636264 0.722 -0.021520413 8.9119976e-39 324 257
0.0063558333 0.72500002 -0.021609833 8.819802e-39 325 257
0.0076480396 0.727 -0.021669446 8.9116473e-39 326 257
0.0089349858 0.72799999 -0.021699252 9.0038429e-39 327 257
0.010197386 0.727 -0.021669446 8.7279791e-39 328 257
0.01147206 0.727 -0.021669446 1.0387499e-38 329 257
0.012711667 0.72500002 -0.021609833 1.2619257e-38 330 257
0.013982833 0.72500002 -0.021609833 1.6030496e-38 331 257
-0.045951359 0.72799999 -0.022975679 1.5575281e-38 284 258
-0.044674929 0.72799999 -0.022975679 1.2993803e-38 285 258
-0.043338891 0.727 -0.022944121 1.169441e-38 286 258
-0.042064216 0.727 -0.022944121 6.7158476e-39 287 258
-0.040789545 0.727 -0.022944121 9.9311942e-39 288 258
-0.039406165 0.72500002 -0.022880999 1.1959498e-38 289 258
-0.038135 0.72500002 -0.022880999 1.1598288e-38 290 258
-0.036762137 0.72299999 -0.02281788 1.1229864e-38 291 258
-0.035445385 0.722 -0.022786319 1.130981e-38 292 258
-0.034084801 0.72000003 -0.022723202 1.0111267e-38 293 258
-0.032776814 0.71899998 -0.022691639 9.9229055e-39 294 258
-0.031516165 0.71899998 -0.022691639 1.0015103e-38 295 258
-0.030171359 0.71700001 -0.02262852 1.047536e-38 296 258
-0.028873893 0.71600002 -0.022596961 1.0659752e-38 297 258
-0.027618507 0.71600002 -0.022596961 1.0476076e-38 298 258
-0.026363119 0.71600002 -0.022596961 1.0383881e-38 299 258
-0.025037598 0.71399999 -0.022533838 1.0382799e-38 300 258
-0.02378572 0.71399999 -0.022533838 1.0290603e-38 301 258
-0.022533838 0.71399999 -0.022533838 1.0473193e-38 302 258
-0.021341572 0.71600002 -0.022596961 1.0380998e-38 303 258
-0.020086186 0.71600002 -0.022596961 1.0012939e-38 304 258
-0.0188308 0.71600002 -0.022596961 9.9207447e-39 305 258
-0.017575413 0.71600002 -0.022596961 9.9207447e-39 306 258
-0.016320027 0.71600002 -0.022596961 9.9207447e-39 307 258
-0.015022559 0.71399999 -0.022533838 9.7374325e-39 308 258
-0.01377068 0.71399999 -0.022533838 9.6452382e-39 309 258
-0.012518799 0.71399999 -0.022533838 9.9200272e-39 310 258
-0.011266919 0.71399999 -0.022533838 9.9200272e-39 311 258
-0.01001504 0.71399999 -0.022533838 9.7363563e-39 312 258
-0.0087631596 0.71399999 -0.022533838 9.7363563e-39 313 258
-0.0075112795 0.71399999 -0.022533838 9.6448809e-39 314 258
-0.0062593995 0.71399999 -0.022533838 9.5526853e-39 315 258
-0.0050075199 0.71399999 -0.022533838 9.5523293e-39 316 258
-0.00376616 0.71600002 -0.022596961 9.5523293e-39 317 258
-0.0025142799 0.71700001 -0.02262852 9.2771844e-39 318 258
-0.00125714 0.71700001 -0.02262852 9.2771844e-39 319 258
0 0.71700001 -0.02262852 8.9112759e-39 320 258
0.0012606466 0.71899998 -0.022691639 8.9112759e-39 321 258
0.0025212932 0.71899998 -0.022691639 9.0949469e-39 322 258
0.0037872 0.72000003 -0.022723202 9.0949469e-39 323 258
0.0050636264 0.722 -0.022786319 8.8190831e-39 324 258
0.0063558333 0.72500002 -0.022880999 8.8190831e-39 325 258
0.0076480396 0.727 -0.022944121 9.0945938e-39 326 258
0.0089227129 0.727 -0.022944121 9.1867894e-39 327 258
0.010197386 0.727 -0.022944121 9.0049149e-39 328 258
0.01147206 0.727 -0.022944121 9.4662532e-39 329 258
0.012711667 0.72500002 -0.022880999 1.1971723e-38 330 258
0.01394426 0.72299999 -0.02281788 1.5936135e-38 331 258
-0.045888241 0.727 -0.024218792 1.5666755e-38 284 259
-0.044613566 0.727 -0.024218792 1.2808689e-38 285 259
-0.043219667 0.72500002 -0.024152167 1.1413512e-38 286 259
-0.041948501 0.72500002 -0.024152167 7.9100776e-39 287 259
-0.040789545 0.727 -0.024218792 1.0204885e-38 288 259
-0.039406165 0.72500002 -0.024152167 1.0112689e-38 289 259
-0.038135 0.72500002 -0.024152167 1.0020496e-38 290 259
-0.036762137 0.72299999 -0.024085538 9.4673224e-39 291 259
-0.035445385 0.722 -0.024052227 9.5519678e-39 292 259
-0.034084801 0.72000003 -0.0239856 9.7359975e-39 293 259
-0.032776814 0.71899998 -0.023952285 1.0108376e-38 294 259
-0.031428497 0.71700001 -0.02388566 1.0384963e-38 295 259
-0.03012928 0.71600002 -0.023852346 1.0661191e-38 296 259
-0.028873893 0.71600002 -0.023852346 1.0753745e-38 297 259
-0.02754136 0.71399999 -0.02378572 1.0845923e-38 298 259
-0.026289478 0.71399999 -0.02378572 1.0845923e-38 299 259
-0.025037598 0.71399999 -0.02378572 1.0844844e-38 300 259
-0.02378572 0.71399999 -0.02378572 1.0476062e-38 301 259
-0.022533838 0.71399999 -0.02378572 1.0566463e-38 302 259
-0.021341572 0.71600002 -0.023852346 1.0198045e-38 303 259
-0.020086186 0.71600002 -0.023852346 1.0105492e-38 304 259
-0.0188308 0.71600002 -0.023852346 9.9211034e-39 305 259
-0.017575413 0.71600002 -0.023852346 9.5534027e-39 306 259
-0.016320027 0.71600002 -0.023852346 9.5534027e-39 307 259
-0.015022559 0.71399999 -0.02378572 9.5526853e-39 308 259
-0.01377068 0.71399999 -0.02378572 9.6452382e-39 309 259
-0.012518799 0.71399999 -0.02378572 9.7363563e-39 310 259
-0.011266919 0.71399999 -0.02378572 9.7363563e-39 311 259
-0.01001504 0.71399999 -0.02378572 9.4594148e-39 312 259
-0.0087631596 0.71399999 -0.02378572 9.5516091e-39 313 259
-0.0075112795 0.71399999 -0.02378572 9.2764669e-39 314 259
-0.0062593995 0.71399999 -0.02378572 9.2764669e-39 315 259
-0.0050075199 0.71399999 -0.02378572 9.3686639e-39 316 259
-0.00376616 0.71600002 -0.023852346 9.5526951e-39 317 259
-0.0025107733 0.71600002 -0.023852346 9.1860677e-39 318 259
-0.00125714 0.71700001 -0.02388566 9.0938721e-39 319 259
0 0.71700001 -0.02388566 8.8190803e-39 320 259
0.0012606466 0.71899998 -0.023952285 8.8190803e-39 321 259
0.0025212932 0.71899998 -0.023952285 8.635768e-39 322 259
0.0037872 0.72000003 -0.0239856 8.635768e-39 323 259
0.0050636264 0.722 -0.024052227 8.5435738e-39 324 259
0.0063382997 0.72299999 -0.024085538 8.5435738e-39 325 259
0.0076059597 0.72299999 -0.024085538 8.6354177e-39 326 259
0.0088981669 0.72500002 -0.024152167 9.0038401e-39 327 259
0.010169334 0.72500002 -0.024152167 8.7311993e-39 328 259
0.0114405 0.72500002 -0.024152167 8.6390036e-39 329 259
0.012676599 0.72299999 -0.024085538 1.1783363e-38 330 259
0.01394426 0.72299999 -0.024085538 1.6209112e-38 331 259
-0.045888241 0.727 -0.025493465 1.5483083e-38 284 260
-0.044613566 0.727 -0.025493465 1.2440627e-38 285 260
-0.043219667 0.72500002 -0.025423333 1.1413867e-38 286 260
-0.041948501 0.72500002 -0.025423333 7.6334865e-39 287 260
-0.040677335 0.72500002 -0.025423333 1.0844137e-38 288 260
-0.039406165 0.72500002 -0.025423333 1.0936692e-38 289 260
-0.038029801 0.72299999 -0.025353199 1.0750152e-38 290 260
-0.03671129 0.722 -0.025318133 1.0657957e-38 291 260
-0.035445385 0.722 -0.025318133 1.0565761e-38 292 260
-0.034084801 0.72000003 -0.025248 1.0657957e-38 293 260
-0.032685637 0.71700001 -0.0251428 1.0383886e-38 294 260
-0.031428497 0.71700001 -0.0251428 1.075267e-38 295 260
-0.03012928 0.71600002 -0.025107734 1.0755187e-38 296 260
-0.028873893 0.71600002 -0.025107734 1.1216165e-38 297 260
-0.02754136 0.71399999 -0.025037598 1.0850257e-38 298 260
-0.026289478 0.71399999 -0.025037598 1.0942452e-38 299 260
-0.025037598 0.71399999 -0.025037598 1.0848459e-38 300 260
-0.02378572 0.71399999 -0.025037598 1.0479676e-38 301 260
-0.022533838 0.71399999 -0.025037598 1.0292767e-38 302 260
-0.021341572 0.71600002 -0.025107734 1.0015821e-38 303 260
-0.020086186 0.71600002 -0.025107734 1.0013659e-38 304 260
-0.018778199 0.71399999 -0.025037598 9.7370737e-39 305 260
-0.017526319 0.71399999 -0.025037598 9.6448795e-39 306 260
-0.016274439 0.71399999 -0.025037598 9.6448795e-39 307 260
-0.015022559 0.71399999 -0.025037598 9.5526853e-39 308 260
-0.013751393 0.713 -0.025002534 9.460491e-39 309 260
-0.012501267 0.713 -0.025002534 9.4601323e-39 310 260
-0.011251139 0.713 -0.025002534 9.3679381e-39 311 260
-0.010001013 0.713 -0.025002534 9.460491e-39 312 260
-0.0087508867 0.713 -0.025002534 9.460491e-39 313 260
-0.0075112795 0.71399999 -0.025037598 9.3679381e-39 314 260
-0.0062593995 0.71399999 -0.025037598 9.3679381e-39 315 260
-0.0050075199 0.71399999 -0.025037598 9.27682e-39 316 260
-0.00376616 0.71600002 -0.025107734 9.3690171e-39 317 260
-0.0025107733 0.71600002 -0.025107734 9.094228e-39 318 260
-0.00125714 0.71700001 -0.0251428 9.094228e-39 319 260
0 0.71700001 -0.0251428 8.9105543e-39 320 260
0.00125714 0.71700001 -0.0251428 8.9105543e-39 321 260
0.0025212932 0.71899998 -0.025212931 8.727242e-39 322 260
0.0037872 0.72000003 -0.025248 8.6350478e-39 323 260
0.0050636264 0.722 -0.025318133 8.727242e-39 324 260
0.0063382997 0.72299999 -0.025353199 8.727242e-39 325 260
0.0076059597 0.72299999 -0.025353199 8.8194362e-39 326 260
0.0088981669 0.72500002 -0.025423333 9.0038275e-39 327 260
0.010169334 0.72500002 -0.025423333 9.0974538e-39 328 260
0.0114405 0.72500002 -0.025423333 8.9127066e-39 329 260
0.012676599 0.72299999 -0.025353199 1.1690079e-38 330 260
0.01394426 0.72299999 -0.025353199 1.629986e-38 331 260
-0.045888241 0.727 -0.026768139 1.5481641e-38 284 261
-0.044613566 0.727 -0.026768139 1.2623576e-38 285 261
-0.043219667 0.72500002 -0.026694499 1.1689375e-38 286 261
-0.041948501 0.72500002 -0.026694499 8.0933857e-39 287 261
-0.040677335 0.72500002 -0.026694499 1.0110171e-38 288 261
-0.039406165 0.72500002 -0.026694499 1.0202368e-38 289 261
-0.038029801 0.72299999 -0.026620859 1.0200215e-38 290 261
-0.03671129 0.722 -0.026584039 1.010802e-38 291 261
-0.035445385 0.722 -0.026584039 1.0198418e-38 292 261
-0.03403746 0.71899998 -0.02647358 1.0290613e-38 293 261
-0.032685637 0.71700001 -0.02639994 1.0292414e-38 294 261
-0.031384666 0.71600002 -0.026363119 1.0753392e-38 295 261
-0.03012928 0.71600002 -0.026363119 1.04822e-38 296 261
-0.028873893 0.71600002 -0.026363119 1.0850623e-38 297 261
-0.02754136 0.71399999 -0.026289478 1.1035368e-38 298 261
-0.026289478 0.71399999 -0.026289478 1.1220118e-38 299 261
-0.025037598 0.71399999 -0.026289478 1.0850257e-38 300 261
-0.02378572 0.71399999 -0.026289478 1.0204887e-38 301 261
-0.022533838 0.71399999 -0.026289478 1.0659752e-38 302 261
-0.021341572 0.71600002 -0.026363119 1.0198774e-38 303 261
-0.020086186 0.71600002 -0.026363119 1.0196251e-38 304 261
-0.018778199 0.71399999 -0.026289478 1.0104057e-38 305 261
-0.017526319 0.71399999 -0.026289478 9.6448795e-39 306 261
-0.016274439 0.71399999 -0.026289478 9.460491e-39 307 261
-0.015001519 0.713 -0.026252659 9.4597736e-39 308 261
-0.013751393 0.713 -0.026252659 9.3672206e-39 309 261
-0.012501267 0.713 -0.026252659 9.4597736e-39 310 261
-0.011251139 0.713 -0.026252659 9.3675793e-39 311 261
-0.010001013 0.713 -0.026252659 9.2753851e-39 312 261
-0.0087508867 0.713 -0.026252659 9.4597736e-39 313 261
-0.0075112795 0.71399999 -0.026289478 9.0924316e-39 314 261
-0.0062593995 0.71399999 -0.026289478 9.1846258e-39 315 261
-0.0050075199 0.71399999 -0.026289478 8.9094781e-39 316 261
-0.00376616 0.71600002 -0.026363119 9.094228e-39 317 261
-0.0025107733 0.71600002 -0.026363119 8.9101955e-39 318 261
-0.00125714 0.71700001 -0.02639994 8.9101955e-39 319 261
0 0.71700001 -0.02639994 8.634689e-39 320 261
0.00125714 0.71700001 -0.02639994 8.634689e-39 321 261
0.0025212932 0.71899998 -0.02647358 8.4513768e-39 322 261
0.0037872 0.72000003 -0.026510401 8.4513768e-39 323 261
0.0050636264 0.722 -0.026584039 8.543571e-39 324 261
0.0063382997 0.72299999 -0.026620859 8.543571e-39 325 261
0.0076270006 0.72500002 -0.026694499 8.5442913e-39 326 261
0.0088981669 0.72500002 -0.026694499 9.005268e-39 327 261
0.010169334 0.72500002 -0.026694499 8.7311881e-39 328 261
0.01140894 0.72299999 -0.026620859 8.4542466e-39 329 261
0.012676599 0.72299999 -0.026620859 1.1780477e-38 330 261
0.01394426 0.72299999 -0.026620859 1.6390258e-38 331 261
-0.045951359 0.72799999 -0.028081384 1.5574913e-38 284 262
-0.044674929 0.72799999 -0.028081384 1.2809042e-38 285 262
-0.043219667 0.72500002 -0.027965667 1.178229e-38 286 262
-0.041948501 0.72500002 -0.027965667 8.2788559e-39 287 262
-0.040677335 0.72500002 -0.027965667 1.0294919e-38 288 262
-0.039406165 0.72500002 -0.027965667 1.0202724e-38 289 262
-0.038029801 0.72299999 -0.02788852 1.0200919e-38 290 262
-0.03671129 0.722 -0.027849946 1.0016528e-38 291 262
-0.035445385 0.722 -0.027849946 1.0199124e-38 292 262
-0.03403746 0.71899998 -0.027734226 1.0291319e-38 293 262
-0.032685637 0.71700001 -0.027657079 1.0199499e-38 294 262
-0.031384666 0.71600002 -0.027618507 1.0844869e-38 295 262
-0.03012928 0.71600002 -0.027618507 1.0664443e-38 296 262
-0.028873893 0.71600002 -0.027618507 1.1032866e-38 297 262
-0.02754136 0.71399999 -0.02754136 1.0851353e-38 298 262
-0.026289478 0.71399999 -0.02754136 1.0759157e-38 299 262
-0.025037598 0.71399999 -0.02754136 1.0756639e-38 300 262
-0.02378572 0.71399999 -0.02754136 1.0111269e-38 301 262
-0.022533838 0.71399999 -0.02754136 1.0382814e-38 302 262
-0.021341572 0.71600002 -0.027618507 1.0014033e-38 303 262
-0.020086186 0.71600002 -0.027618507 9.9203916e-39 304 262
-0.018778199 0.71399999 -0.02754136 9.828196e-39 305 262
-0.017526319 0.71399999 -0.02754136 9.7356416e-39 306 262
-0.016251646 0.713 -0.027502786 9.5516091e-39 307 262
-0.015001519 0.713 -0.027502786 9.4597736e-39 308 262
-0.013751393 0.713 -0.027502786 9.4597736e-39 309 262
-0.012501267 0.713 -0.027502786 9.3675793e-39 310 262
-0.011251139 0.713 -0.027502786 9.4597736e-39 311 262
-0.010001013 0.713 -0.027502786 9.0924316e-39 312 262
-0.0087508867 0.713 -0.027502786 9.0924316e-39 313 262
-0.0075007593 0.713 -0.027502786 9.0924316e-39 314 262
-0.0062506334 0.713 -0.027502786 9.1846258e-39 315 262
-0.0050075199 0.71399999 -0.02754136 8.9094781e-39 316 262
-0.00376616 0.71600002 -0.027618507 8.9094781e-39 317 262
-0.0025107733 0.71600002 -0.027618507 8.9094781e-39 318 262
-0.0012553866 0.71600002 -0.027618507 8.9094781e-39 319 262
0 0.71700001 -0.027657079 8.6339716e-39 320 262
0.00125714 0.71700001 -0.027657079 8.6339716e-39 321 262
0.0025212932 0.71899998 -0.027734226 8.5424948e-39 322 262
0.0037872 0.72000003 -0.027772799 8.5424948e-39 323 262
0.0050636264 0.722 -0.027849946 8.4513768e-39 324 262
0.0063382997 0.72299999 -0.02788852 8.543571e-39 325 262
0.0076270006 0.72500002 -0.027965667 8.8197992e-39 326 262
0.0088981669 0.72500002 -0.027965667 9.0967448e-39 327 262
0.010169334 0.72500002 -0.027965667 9.0070533e-39 328 262
0.01140894 0.72299999 -0.02788852 8.8223061e-39 329 262
0.012676599 0.72299999 -0.02788852 1.1873388e-38 330 262
-0.045951359 0.72799999 -0.029357811 1.5574913e-38 284 263
-0.044674929 0.72799999 -0.029357811 1.3085631e-38 285 263
-0.043338891 0.727 -0.029317487 1.2242546e-38 286 263
-0.041948501 0.72500002 -0.029236834 8.2781342e-39 287 263
-0.040677335 0.72500002 -0.029236834 1.0570783e-38 288 263
-0.039406165 0.72500002 -0.029236834 1.0386033e-38 289 263
-0.038029801 0.72299999 -0.029156178 1.0384231e-38 290 263
-0.03671129 0.722 -0.029115854 1.0108004e-38 291 263
-0.035347197 0.72000003 -0.029035201 1.0290601e-38 292 263
-0.03403746 0.71899998 -0.028994869 1.0290601e-38 293 263
-0.032685637 0.71700001 -0.028914221 1.0382093e-38 294 263
-0.031384666 0.71600002 -0.028873893 1.0750874e-38 295 263
-0.03012928 0.71600002 -0.028873893 1.0477894e-38 296 263
-0.028873893 0.71600002 -0.028873893 1.0847037e-38 297 263
-0.02754136 0.71399999 -0.028793238 1.0756283e-38 298 263
-0.026289478 0.71399999 -0.028793238 1.0479696e-38 299 263
-0.025037598 0.71399999 -0.028793238 1.0569371e-38 300 263
-0.02378572 0.71399999 -0.028793238 1.0108751e-38 301 263
-0.022533838 0.71399999 -0.028793238 1.019842e-38 302 263
-0.021341572 0.71600002 -0.028873893 9.8296379e-39 303 263
-0.020086186 0.71600002 -0.028873893 9.9196699e-39 304 263
-0.018778199 0.71399999 -0.028793238 9.7352801e-39 305 263
-0.017526319 0.71399999 -0.028793238 9.5519678e-39 306 263
-0.016251646 0.713 -0.028752912 9.4597736e-39 307 263
-0.015001519 0.713 -0.028752912 9.3675793e-39 308 263
-0.013751393 0.713 -0.028752912 9.3675793e-39 309 263
-0.012501267 0.713 -0.028752912 9.2753851e-39 310 263
-0.011251139 0.713 -0.028752912 9.2753851e-39 311 263
-0.010001013 0.713 -0.028752912 9.0924316e-39 312 263
-0.0087508867 0.713 -0.028752912 9.0924316e-39 313 263
-0.0075007593 0.713 -0.028752912 8.9091193e-39 314 263
-0.0062506334 0.713 -0.028752912 8.9091193e-39 315 263
-0.0050075199 0.71399999 -0.028793238 8.8176426e-39 316 263
-0.00376616 0.71600002 -0.028873893 8.7250896e-39 317 263
-0.0025107733 0.71600002 -0.028873893 8.7250896e-39 318 263
-0.0012553866 0.71600002 -0.028873893 8.8172838e-39 319 263
0 0.71700001 -0.028914221 8.7250896e-39 320 263
0.00125714 0.71700001 -0.028914221 8.7250896e-39 321 263
0.0025142799 0.71700001 -0.028914221 8.3584651e-39 322 263
0.0037872 0.72000003 -0.029035201 8.5424948e-39 323 263
0.0050636264 0.722 -0.029115854 8.543571e-39 324 263
0.0063382997 0.72299999 -0.029156178 8.636124e-39 325 263
0.0076270006 0.72500002 -0.029236834 8.7286825e-39 326 263
0.0088981669 0.72500002 -0.029236834 9.0974636e-39 327 263
0.010169334 0.72500002 -0.029236834 9.0988916e-39 328 263
0.0114405 0.72500002 -0.029236834 8.9145003e-39 329 263
0.012711667 0.72500002 -0.029236834 1.1966306e-38 330 263
-0.045951359 0.72799999 -0.030634239 1.5481994e-38 284 264
-0.044674929 0.72799999 -0.030634239 1.345369e-38 285 264
-0.043219667 0.72500002 -0.030508002 1.2612052e-38 286 264
-0.041948501 0.72500002 -0.030508002 8.2788559e-39 287 264
-0.040677335 0.72500002 -0.030508002 1.0663342e-38 288 264
-0.039406165 0.72500002 -0.030508002 1.0294919e-38 289 264
-0.038029801 0.72299999 -0.030423839 1.0476064e-38 290 264
-0.03671129 0.722 -0.030381758 1.0383868e-38 291 264
-0.035347197 0.72000003 -0.0302976 1.0473913e-38 292 264
-0.03403746 0.71899998 -0.030255521 1.0381716e-38 293 264
-0.032640055 0.71600002 -0.03012928 1.0380294e-38 294 264
-0.031384666 0.71600002 -0.03012928 1.0749076e-38 295 264
-0.030045118 0.71399999 -0.030045118 1.0382827e-38 296 264
-0.028793238 0.71399999 -0.030045118 1.0567578e-38 297 264
-0.02754136 0.71399999 -0.030045118 1.0476106e-38 298 264
-0.026289478 0.71399999 -0.030045118 1.038391e-38 299 264
-0.025037598 0.71399999 -0.030045118 1.038318e-38 300 264
-0.02378572 0.71399999 -0.030045118 1.0106953e-38 301 264
-0.022533838 0.71399999 -0.030045118 9.9221866e-39 302 264
-0.021341572 0.71600002 -0.03012928 9.7377954e-39 303 264
-0.020086186 0.71600002 -0.03012928 9.8274743e-39 304 264
-0.018778199 0.71399999 -0.030045118 9.6430858e-39 305 264
-0.017526319 0.71399999 -0.030045118 9.5508916e-39 306 264
-0.016251646 0.713 -0.030003037 9.5508916e-39 307 264
-0.015001519 0.713 -0.030003037 9.4590561e-39 308 264
-0.013751393 0.713 -0.030003037 9.4590561e-39 309 264
-0.012501267 0.713 -0.030003037 9.1835496e-39 310 264
-0.011251139 0.713 -0.030003037 9.1835496e-39 311 264
-0.010001013 0.713 -0.030003037 8.9998786e-39 312 264
-0.0087508867 0.713 -0.030003037 8.9998786e-39 313 264
-0.0075007593 0.713 -0.030003037 8.7254483e-39 314 264
-0.0062506334 0.713 -0.030003037 8.7254483e-39 315 264
-0.0050075199 0.71399999 -0.030045118 8.8169251e-39 316 264
-0.00376616 0.71600002 -0.03012928 8.8169251e-39 317 264
-0.0025107733 0.71600002 -0.03012928 8.5410599e-39 318 264
-0.00125714 0.71700001 -0.030171359 8.5410599e-39 319 264
0 0.71700001 -0.030171359 8.5407011e-39 320 264
0.00125714 0.71700001 -0.030171359 8.5407011e-39 321 264
0.0025142799 0.71700001 -0.030171359 8.3584651e-39 322 264
0.0037872 0.72000003 -0.0302976 8.634689e-39 323 264
0.0050636264 0.722 -0.030381758 8.635768e-39 324 264
0.0063382997 0.72299999 -0.030423839 8.8197992e-39 325 264
0.0076270006 0.72500002 -0.030508002 8.7286853e-39 326 264
0.0088981669 0.72500002 -0.030508002 9.1896635e-39 327 264
0.010169334 0.72500002 -0.030508002 9.0066973e-39 328 264
0.0114405 0.72500002 -0.030508002 9.2829255e-39 329 264
0.012711667 0.72500002 -0.030508002 1.2428363e-38 330 264
-0.044674929 0.72799999 -0.031910665 1.3913593e-38 285 265
-0.043219667 0.72500002 -0.031779166 1.298443e-38 286 265
-0.041948501 0.72500002 -0.031779166 7.7292793e-39 287 265
-0.040677335 0.72500002 -0.031779166 1.0388556e-38 288 265
-0.039406165 0.72500002 -0.031779166 1.0388556e-38 289 265
-0.038029801 0.72299999 -0.031691495 1.0568625e-38 290 265
-0.03671129 0.722 -0.031647664 1.0384234e-38 291 265
-0.035347197 0.72000003 -0.03156 1.0383152e-38 292 265
-0.03403746 0.71899998 -0.031516165 1.0106209e-38 293 265
-0.032640055 0.71600002 -0.031384666 1.0381366e-38 294 265
-0.031296998 0.71399999 -0.031296998 1.0381366e-38 295 265
-0.030045118 0.71399999 -0.031296998 1.0197346e-38 296 265
-0.028793238 0.71399999 -0.031296998 1.02899e-38 297 265
-0.02754136 0.71399999 -0.031296998 1.0198064e-38 298 265
-0.026289478 0.71399999 -0.031296998 1.0014033e-38 299 265
-0.025037598 0.71399999 -0.031296998 1.0197697e-38 300 265
-0.02378572 0.71399999 -0.031296998 1.0105502e-38 301 265
-0.022533838 0.71399999 -0.031296998 9.8303469e-39 302 265
-0.021341572 0.71600002 -0.031384666 9.645597e-39 303 265
-0.020086186 0.71600002 -0.031384666 9.7363563e-39 304 265
-0.018778199 0.71399999 -0.031296998 9.4597736e-39 305 265
-0.017526319 0.71399999 -0.031296998 9.5512503e-39 306 265
-0.016251646 0.713 -0.031253166 9.4590561e-39 307 265
-0.015001519 0.713 -0.031253166 9.4590561e-39 308 265
-0.013751393 0.713 -0.031253166 9.4590561e-39 309 265
-0.012501267 0.713 -0.031253166 8.9998786e-39 310 265
-0.011251139 0.713 -0.031253166 9.0920729e-39 311 265
-0.010001013 0.713 -0.031253166 8.9091193e-39 312 265
-0.0087508867 0.713 -0.031253166 8.9091193e-39 313 265
-0.0075007593 0.713 -0.031253166 8.7243721e-39 314 265
-0.0062506334 0.713 -0.031253166 8.8169251e-39 315 265
-0.0050075199 0.71399999 -0.031296998 8.5414186e-39 316 265
-0.00376616 0.71600002 -0.031384666 8.5414186e-39 317 265
-0.0025107733 0.71600002 -0.031384666 8.5417773e-39 318 265
-0.00125714 0.71700001 -0.031428497 8.5417773e-39 319 265
0 0.71700001 -0.031428497 8.5410599e-39 320 265
0.00125714 0.71700001 -0.031428497 8.7250896e-39 321 265
0.0025212932 0.71899998 -0.031516165 8.3591825e-39 322 265
0.0037872 0.72000003 -0.03156 8.4513768e-39 323 265
0.0050636264 0.722 -0.031647664 8.543571e-39 324 265
0.0063558333 0.72500002 -0.031779166 8.636124e-39 325 265
0.0076059597 0.72299999 -0.031691495 8.821953e-39 326 265
0.0088736191 0.72299999 -0.031691495 9.0063442e-39 327 265
0.01014128 0.72299999 -0.031691495 8.6389938e-39 328 265
0.0114405 0.72500002 -0.031779166 9.5605844e-39 329 265
-0.044613566 0.727 -0.033141505 1.437529e-38 285 266
-0.043338891 0.727 -0.033141505 1.3539403e-38 286 266
-0.042064216 0.727 -0.033141505 8.0073053e-39 287 266
-0.040789545 0.727 -0.033141505 1.0755891e-38 288 266
-0.039514873 0.727 -0.033141505 1.0663695e-38 289 266
-0.038135 0.72500002 -0.033050332 1.0662247e-38 290 266
-0.036762137 0.72299999 -0.032959159 1.0293826e-38 291 266
-0.035347197 0.72000003 -0.0328224 1.0292033e-38 292 266
-0.03403746 0.71899998 -0.032776814 1.019948e-38 293 266
-0.032640055 0.71600002 -0.032640055 1.0197686e-38 294 266
-0.031296998 0.71399999 -0.032548878 1.0381716e-38 295 266
-0.030045118 0.71399999 -0.032548878 1.0105502e-38 296 266
-0.028793238 0.71399999 -0.032548878 1.0013306e-38 297 266
-0.02754136 0.71399999 -0.032548878 1.0105505e-38 298 266
-0.026289478 0.71399999 -0.032548878 9.9207545e-39 299 266
-0.025037598 0.71399999 -0.032548878 9.9211105e-39 300 266
-0.02378572 0.71399999 -0.032548878 1.0013306e-38 301 266
-0.022533838 0.71399999 -0.032548878 9.9214622e-39 302 266
-0.021341572 0.71600002 -0.032640055 9.7374325e-39 303 266
-0.020086186 0.71600002 -0.032640055 9.7356388e-39 304 266
-0.018778199 0.71399999 -0.032548878 9.6434446e-39 305 266
-0.017526319 0.71399999 -0.032548878 9.3686555e-39 306 266
-0.016274439 0.71399999 -0.032548878 9.2764613e-39 307 266
-0.015001519 0.713 -0.032503292 9.2757438e-39 308 266
-0.013751393 0.713 -0.032503292 9.2757438e-39 309 266
-0.012501267 0.713 -0.032503292 8.9080431e-39 310 266
-0.011251139 0.713 -0.032503292 9.0005961e-39 311 266
-0.010001013 0.713 -0.032503292 8.8169251e-39 312 266
-0.0087508867 0.713 -0.032503292 8.8169251e-39 313 266
-0.0075112795 0.71399999 -0.032548878 8.7247309e-39 314 266
-0.0062593995 0.71399999 -0.032548878 8.8169251e-39 315 266
-0.0050215465 0.71600002 -0.032640055 8.7254483e-39 316 266
-0.00376616 0.71600002 -0.032640055 8.7254483e-39 317 266
-0.0025107733 0.71600002 -0.032640055 8.6343303e-39 318 266
-0.00125714 0.71700001 -0.032685637 8.6343303e-39 319 266
0 0.71899998 -0.032776814 8.3584651e-39 320 266
0.0012606466 0.71899998 -0.032776814 8.3584651e-39 321 266
0.0025212932 0.71899998 -0.032776814 8.5424948e-39 322 266
0.0037977197 0.722 -0.032913569 8.727242e-39 323 266
0.0050706398 0.72299999 -0.032959159 8.5442913e-39 324 266
0.0063558333 0.72500002 -0.033050332 8.7286825e-39 325 266
0.0076059597 0.72299999 -0.032959159 8.6379316e-39 326 266
0.0088736191 0.72299999 -0.032959159 9.0067142e-39 327 266
0.01014128 0.72299999 -0.032959159 8.8237494e-39 328 266
-0.044674929 0.72799999 -0.034463517 1.4927388e-38 285 267
-0.043398503 0.72799999 -0.034463517 1.4095091e-38 286 267
-0.042122077 0.72799999 -0.034463517 8.0101794e-39 287 267
-0.040789545 0.727 -0.03441618 1.0571499e-38 288 267
-0.039514873 0.727 -0.03441618 1.0479304e-38 289 267
-0.038135 0.72500002 -0.034321502 1.0661894e-38 290 267
-0.036762137 0.72299999 -0.03422682 1.0385666e-38 291 267
-0.035445385 0.722 -0.034179479 1.0201273e-38 292 267
-0.03403746 0.71899998 -0.03403746 1.0016885e-38 293 267
-0.032640055 0.71600002 -0.03389544 1.0290957e-38 294 267
-0.031384666 0.71600002 -0.03389544 1.0198762e-38 295 267
-0.030045118 0.71399999 -0.033800758 1.0014735e-38 296 267
-0.028793238 0.71399999 -0.033800758 9.7381499e-39 297 267
-0.02754136 0.71399999 -0.033800758 9.9214636e-39 298 267
-0.026289478 0.71399999 -0.033800758 9.9214636e-39 299 267
-0.025037598 0.71399999 -0.033800758 9.7374325e-39 300 267
-0.02378572 0.71399999 -0.033800758 9.7374325e-39 301 267
-0.022533838 0.71399999 -0.033800758 9.645597e-39 302 267
-0.021341572 0.71600002 -0.03389544 9.5534027e-39 303 267
-0.020086186 0.71600002 -0.03389544 9.5526853e-39 304 267
-0.0188308 0.71600002 -0.03389544 9.3679381e-39 305 267
-0.017526319 0.71399999 -0.033800758 9.3682968e-39 306 267
-0.016274439 0.71399999 -0.033800758 9.2761026e-39 307 267
-0.015001519 0.713 -0.033753417 9.2753851e-39 308 267
-0.013751393 0.713 -0.033753417 9.1835496e-39 309 267
-0.012501267 0.713 -0.033753417 8.8169251e-39 310 267
-0.011251139 0.713 -0.033753417 8.8169251e-39 311 267
-0.010001013 0.713 -0.033753417 8.8169251e-39 312 267
-0.0087631596 0.71399999 -0.033800758 8.7247309e-39 313 267
-0.0075112795 0.71399999 -0.033800758 8.8169251e-39 314 267
-0.0062769335 0.71600002 -0.03389544 8.7243721e-39 315 267
-0.0050215465 0.71600002 -0.03389544 8.8169251e-39 316 267
-0.00376616 0.71600002 -0.03389544 8.9091193e-39 317 267
-0.0025142799 0.71700001 -0.033942781 8.5428535e-39 318 267
-0.00125714 0.71700001 -0.033942781 8.5428535e-39 319 267
0 0.71899998 -0.03403746 8.3584651e-39 320 267
0.0012606466 0.71899998 -0.03403746 8.3584651e-39 321 267
0.0025212932 0.71899998 -0.03403746 8.3588238e-39 322 267
0.0037977197 0.722 -0.034179479 8.5435738e-39 323 267
0.0050706398 0.72299999 -0.03422682 8.5442913e-39 324 267
0.0063558333 0.72500002 -0.034321502 8.7286825e-39 325 267
0.0076059597 0.72299999 -0.03422682 8.9141514e-39 326 267
0.0088736191 0.72299999 -0.03422682 8.7294014e-39 327 267
-0.043398503 0.72799999 -0.035739943 1.4557867e-38 286 268
-0.042122077 0.72799999 -0.035739943 8.7495423e-39 287 268
-0.040845651 0.72799999 -0.035739943 1.0664048e-38 288 268
-0.039514873 0.727 -0.035690852 1.0571852e-38 289 268
-0.038240198 0.727 -0.035690852 1.0662247e-38 290 268
-0.036863834 0.72500002 -0.035592668 1.0386021e-38 291 268
-0.035494477 0.72299999 -0.035494477 1.0384586e-38 292 268
-0.034084801 0.72000003 -0.035347197 1.0108362e-38 293 268
-0.032685637 0.71700001 -0.035199918 1.0290598e-38 294 268
-0.031384666 0.71600002 -0.035150826 1.0198404e-38 295 268
-0.03012928 0.71600002 -0.035150826 1.0288445e-38 296 268
-0.028873893 0.71600002 -0.035150826 1.0196251e-38 297 268
-0.027618507 0.71600002 -0.035150826 9.9214636e-39 298 268
-0.026289478 0.71399999 -0.035052639 9.9214636e-39 299 268
-0.025037598 0.71399999 -0.035052639 9.9214636e-39 300 268
-0.02378572 0.71399999 -0.035052639 9.7370737e-39 301 268
-0.022533838 0.71399999 -0.035052639 9.6448809e-39 302 268
-0.021341572 0.71600002 -0.035150826 9.5526853e-39 303 268
-0.020086186 0.71600002 -0.035150826 9.4601323e-39 304 268
-0.0188308 0.71600002 -0.035150826 9.3679381e-39 305 268
-0.017526319 0.71399999 -0.035052639 9.1849845e-39 306 268
-0.016274439 0.71399999 -0.035052639 9.0924316e-39 307 268
-0.015022559 0.71399999 -0.035052639 9.0005961e-39 308 268
-0.01377068 0.71399999 -0.035052639 9.0005961e-39 309 268
-0.012518799 0.71399999 -0.035052639 8.9080431e-39 310 268
-0.011266919 0.71399999 -0.035052639 8.9080431e-39 311 268
-0.01001504 0.71399999 -0.035052639 8.9998786e-39 312 268
-0.0087631596 0.71399999 -0.035052639 8.9998786e-39 313 268
-0.00753232 0.71600002 -0.035150826 8.7243721e-39 314 268
-0.0062769335 0.71600002 -0.035150826 8.8169251e-39 315 268
-0.0050285598 0.71700001 -0.035199918 8.5428535e-39 316 268
-0.0037714199 0.71700001 -0.035199918 8.5428535e-39 317 268
-0.0025142799 0.71700001 -0.035199918 8.5421361e-39 318 268
-0.00125714 0.71700001 -0.035199918 8.5421361e-39 319 268
0 0.71899998 -0.035298105 8.6339716e-39 320 268
0.0012606466 0.71899998 -0.035298105 8.6339716e-39 321 268
0.0025248001 0.72000003 -0.035347197 8.3588266e-39 322 268
0.0037977197 0.722 -0.035445385 8.5432179e-39 323 268
0.0050706398 0.72299999 -0.035494477 8.5439381e-39 324 268
0.0063558333 0.72500002 -0.035592668 8.7283294e-39 325 268
0.0076270006 0.72500002 -0.035592668 8.6386379e-39 326 268
-0.042122077 0.72799999 -0.037016369 1.01332e-38 287 269
-0.040845651 0.72799999 -0.037016369 1.1125026e-38 288 269
-0.039569225 0.72799999 -0.037016369 1.0110874e-38 289 269
-0.038240198 0.727 -0.036965527 1.0661894e-38 290 269
-0.036863834 0.72500002 -0.036863834 1.0477863e-38 291 269
-0.035592668 0.72500002 -0.036863834 1.047643e-38 292 269
-0.034084801 0.72000003 -0.036609601 1.0108007e-38 293 269
-0.032776814 0.71899998 -0.036558751 1.0382799e-38 294 269
-0.031428497 0.71700001 -0.036457058 1.0198048e-38 295 269
-0.03012928 0.71600002 -0.036406212 1.0105852e-38 296 269
-0.028873893 0.71600002 -0.036406212 1.0105852e-38 297 269
-0.027618507 0.71600002 -0.036406212 9.9225398e-39 298 269
-0.026289478 0.71399999 -0.036304519 9.7381499e-39 299 269
-0.025037598 0.71399999 -0.036304519 9.7370765e-39 300 269
-0.02378572 0.71399999 -0.036304519 9.7370765e-39 301 269
-0.022533838 0.71399999 -0.036304519 9.6448795e-39 302 269
-0.021341572 0.71600002 -0.036406212 9.6448795e-39 303 269
-0.020086186 0.71600002 -0.036406212 9.5526853e-39 304 269
-0.0188308 0.71600002 -0.036406212 9.460491e-39 305 269
-0.017575413 0.71600002 -0.036406212 9.185702e-39 306 269
-0.016320027 0.71600002 -0.036406212 9.0935078e-39 307 269
-0.015022559 0.71399999 -0.036304519 9.2761026e-39 308 269
-0.01377068 0.71399999 -0.036304519 9.2761026e-39 309 269
-0.012518799 0.71399999 -0.036304519 8.8169251e-39 310 269
-0.011266919 0.71399999 -0.036304519 8.8169251e-39 311 269
-0.01001504 0.71399999 -0.036304519 8.9998786e-39 312 269
-0.0087877065 0.71600002 -0.036406212 9.0917141e-39 313 269
-0.00753232 0.71600002 -0.036406212 8.8169251e-39 314 269
-0.0062769335 0.71600002 -0.036406212 8.8169251e-39 315 269
-0.0050285598 0.71700001 -0.036457058 8.5428535e-39 316 269
-0.0037714199 0.71700001 -0.036457058 8.5428535e-39 317 269
-0.0025142799 0.71700001 -0.036457058 8.5428535e-39 318 269
-0.0012606466 0.71899998 -0.036558751 8.3584651e-39 319 269
0 0.71899998 -0.036558751 8.5417773e-39 320 269
0.0012624001 0.72000003 -0.036609601 8.6339716e-39 321 269
0.0025248001 0.72000003 -0.036609601 8.4510194e-39 322 269
0.0037977197 0.722 -0.03671129 8.5435738e-39 323 269
0.0050706398 0.72299999 -0.036762137 8.4531774e-39 324 269
0.0063733663 0.727 -0.036965527 8.7294042e-39 325 269
0.0076480396 0.727 -0.036965527 8.7319083e-39 326 269
-0.0422378 0.73000002 -0.038398001 1.1609049e-38 287 270
-0.040845651 0.72799999 -0.038292799 1.1681797e-38 288 270
-0.039569225 0.72799999 -0.038292799 9.3769064e-39 289 270
-0.038240198 0.727 -0.038240198 1.066225e-38 290 270
-0.036863834 0.72500002 -0.038135 1.0478219e-38 291 270
-0.035592668 0.72500002 -0.038135 1.0568262e-38 292 270
-0.034084801 0.72000003 -0.037871998 1.0383871e-38 293 270
-0.032776814 0.71899998 -0.037819397 1.0291317e-38 294 270
-0.031428497 0.71700001 -0.037714198 1.0199121e-38 295 270
-0.03012928 0.71600002 -0.037661601 1.0198404e-38 296 270
-0.028873893 0.71600002 -0.037661601 1.0106209e-38 297 270
-0.027618507 0.71600002 -0.037661601 9.8303441e-39 298 270
-0.026289478 0.71399999 -0.037556399 9.7381499e-39 299 270
-0.025037598 0.71399999 -0.037556399 9.7370737e-39 300 270
-0.02378572 0.71399999 -0.037556399 9.7370737e-39 301 270
-0.022533838 0.71399999 -0.037556399 9.8285505e-39 302 270
-0.021341572 0.71600002 -0.037661601 9.8285505e-39 303 270
-0.020086186 0.71600002 -0.037661601 9.5537615e-39 304 270
-0.0188308 0.71600002 -0.037661601 9.3697317e-39 305 270
-0.017575413 0.71600002 -0.037661601 9.278255e-39 306 270
-0.016320027 0.71600002 -0.037661601 9.1860607e-39 307 270
-0.01506464 0.71600002 -0.037661601 9.093149e-39 308 270
-0.013809253 0.71600002 -0.037661601 9.093149e-39 309 270
-0.012553867 0.71600002 -0.037661601 9.0005961e-39 310 270
-0.01129848 0.71600002 -0.037661601 9.0005961e-39 311 270
-0.010043093 0.71600002 -0.037661601 8.8169251e-39 312 270
-0.0087877065 0.71600002 -0.037661601 8.8169251e-39 313 270
-0.00753232 0.71600002 -0.037661601 8.7254483e-39 314 270
-0.0062857 0.71700001 -0.037714198 8.8176426e-39 315 270
-0.0050285598 0.71700001 -0.037714198 8.5428535e-39 316 270
-0.0037714199 0.71700001 -0.037714198 8.3588238e-39 317 270
-0.0025212932 0.71899998 -0.037819397 8.5421361e-39 318 270
-0.0012606466 0.71899998 -0.037819397 8.5421361e-39 319 270
0 0.71899998 -0.037819397 8.6339716e-39 320 270
0.0012624001 0.72000003 -0.037871998 8.6339716e-39 321 270
0.0025248001 0.72000003 -0.037871998 8.543571e-39 322 270
0.0037977197 0.722 -0.0379772 8.8201551e-39 323 270
0.0050846669 0.72500002 -0.038135 8.4538907e-39 324 270
0.0063733663 0.727 -0.038240198 8.5460863e-39 325 270
0.0076480396 0.727 -0.038240198 8.6393526e-39 326 270
-0.0422378 0.73000002 -0.039677933 1.2716478e-38 287 271
-0.040957868 0.73000002 -0.039677933 1.24244e-38 288 271
-0.039569225 0.72799999 -0.039569225 9.1975528e-39 289 271
-0.038292799 0.72799999 -0.039569225 1.084592e-38 290 271
-0.036965527 0.727 -0.039514873 1.0753724e-38 291 271
-0.035592668 0.72500002 -0.039406165 1.0568615e-38 292 271
-0.034179479 0.722 -0.039243106 1.0476062e-38 293 271
-0.032776814 0.71899998 -0.039080046 1.0383868e-38 294 271
-0.031428497 0.71700001 -0.038971342 1.019948e-38 295 271
-0.030171359 0.71700001 -0.038971342 1.0106209e-38 296 271
-0.028873893 0.71600002 -0.038916986 1.0014015e-38 297 271
-0.027618507 0.71600002 -0.038916986 1.0013656e-38 298 271
-0.026363119 0.71600002 -0.038916986 9.9214622e-39 299 271
-0.025107734 0.71600002 -0.038916986 9.9207447e-39 300 271
-0.023852346 0.71600002 -0.038916986 9.9207447e-39 301 271
-0.022596961 0.71600002 -0.038916986 9.8285505e-39 302 271
-0.021341572 0.71600002 -0.038916986 9.8285505e-39 303 271
-0.020086186 0.71600002 -0.038916986 9.553044e-39 304 271
-0.0188308 0.71600002 -0.038916986 9.553044e-39 305 271
-0.017575413 0.71600002 -0.038916986 9.3697317e-39 306 271
-0.016320027 0.71600002 -0.038916986 9.1853433e-39 307 271
-0.01506464 0.71600002 -0.038916986 9.1853433e-39 308 271
-0.013809253 0.71600002 -0.038916986 9.1853433e-39 309 271
-0.012553867 0.71600002 -0.038916986 9.093149e-39 310 271
-0.01129848 0.71600002 -0.038916986 9.093149e-39 311 271
-0.010043093 0.71600002 -0.038916986 8.8176426e-39 312 271
-0.0087877065 0.71600002 -0.038916986 8.7254483e-39 313 271
-0.00753232 0.71600002 -0.038916986 8.7254483e-39 314 271
-0.0062857 0.71700001 -0.038971342 8.8176426e-39 315 271
-0.0050285598 0.71700001 -0.038971342 8.5428535e-39 316 271
-0.0037714199 0.71700001 -0.038971342 8.5428535e-39 317 271
-0.0025212932 0.71899998 -0.039080046 8.5428535e-39 318 271
-0.0012606466 0.71899998 -0.039080046 8.5428535e-39 319 271
0 0.72000003 -0.039134402 8.4517355e-39 320 271
0.0012659066 0.722 -0.039243106 8.4517355e-39 321 271
0.0025353199 0.72299999 -0.039297458 8.5439297e-39 322 271
0.0038029798 0.72299999 -0.039297458 8.8201537e-39 323 271
0.0050986931 0.727 -0.039514873 8.4542564e-39 324 271
0.0063733663 0.727 -0.039514873 8.5468108e-39 325 271
0.0076480396 0.727 -0.039514873 8.6389938e-39 326 271
-0.043756187 0.73400003 -0.041182294 1.4836627e-38 286 272
-0.042411376 0.73299998 -0.041126184 1.4099062e-38 287 272
-0.040957868 0.73000002 -0.040957868 1.3258128e-38 288 272
-0.039677933 0.73000002 -0.040957868 9.3859111e-39 289 272
-0.038292799 0.72799999 -0.040845651 1.0754443e-38 290 272
-0.036965527 0.727 -0.040789545 1.0386021e-38 291 272
-0.035592668 0.72500002 -0.040677335 1.0568978e-38 292 272
-0.03422682 0.72299999 -0.040565118 1.0200556e-38 293 272
-0.0328224 0.72000003 -0.040396802 1.0383868e-38 294 272
-0.031516165 0.71899998 -0.040340692 1.0291674e-38 295 272
-0.030171359 0.71700001 -0.040228479 1.0290601e-38 296 272
-0.028914221 0.71700001 -0.040228479 1.0198404e-38 297 272
-0.027618507 0.71600002 -0.040172372 9.9225384e-39 298 272
-0.026363119 0.71600002 -0.040172372 9.9225384e-39 299 272
-0.025107734 0.71600002 -0.040172372 9.9214622e-39 300 272
-0.023852346 0.71600002 -0.040172372 9.9214622e-39 301 272
-0.022596961 0.71600002 -0.040172372 9.7374325e-39 302 272
-0.021371379 0.71700001 -0.040228479 9.7374325e-39 303 272
-0.020086186 0.71600002 -0.040172372 9.553044e-39 304 272
-0.0188308 0.71600002 -0.040172372 9.553044e-39 305 272
-0.017575413 0.71600002 -0.040172372 9.3697317e-39 306 272
-0.016320027 0.71600002 -0.040172372 9.1849845e-39 307 272
-0.01506464 0.71600002 -0.040172372 9.1853433e-39 308 272
-0.013809253 0.71600002 -0.040172372 9.2775375e-39 309 272
-0.012553867 0.71600002 -0.040172372 8.9105543e-39 310 272
-0.01129848 0.71600002 -0.040172372 9.0027485e-39 311 272
-0.01005712 0.71700001 -0.040228479 8.7268833e-39 312 272
-0.0087999795 0.71700001 -0.040228479 8.7268833e-39 313 272
-0.0075428397 0.71700001 -0.040228479 8.7258071e-39 314 272
-0.0062857 0.71700001 -0.040228479 8.9101955e-39 315 272
-0.0050425865 0.71899998 -0.040340692 8.6350478e-39 316 272
-0.0037819401 0.71899998 -0.040340692 8.5428535e-39 317 272
-0.0025248001 0.72000003 -0.040396802 8.4517355e-39 318 272
-0.0012624001 0.72000003 -0.040396802 8.4517355e-39 319 272
0 0.722 -0.040509012 8.4517355e-39 320 272
0.0012676599 0.72299999 -0.040565118 8.4517355e-39 321 272
0.0025353199 0.72299999 -0.040565118 8.5439297e-39 322 272
0.0038135003 0.72500002 -0.040677335 8.8201537e-39 323 272
0.0050986931 0.727 -0.040789545 8.6386379e-39 324 272
0.0063821329 0.72799999 -0.040845651 8.4542466e-39 325 272
-0.043756187 0.73400003 -0.042469237 1.455861e-38 286 273
-0.0422378 0.73000002 -0.0422378 1.4466414e-38 287 273
-0.040957868 0.73000002 -0.0422378 1.3724866e-38 288 273
-0.039569225 0.72799999 -0.042122077 9.85265e-39 289 273
-0.038292799 0.72799999 -0.042122077 1.0757667e-38 290 273
-0.036965527 0.727 -0.042064216 1.0388891e-38 291 273
-0.035690852 0.727 -0.042064216 1.057005e-38 292 273
-0.03422682 0.72299999 -0.041832779 1.0477497e-38 293 273
-0.032913569 0.722 -0.041774917 1.0383868e-38 294 273
-0.03156 0.72000003 -0.041659199 1.0291674e-38 295 273
-0.030255521 0.71899998 -0.041601337 1.0474269e-38 296 273
-0.028914221 0.71700001 -0.041485619 1.0382075e-38 297 273
-0.027657079 0.71700001 -0.041485619 1.0106568e-38 298 273
-0.026363119 0.71600002 -0.041427758 1.0106568e-38 299 273
-0.025107734 0.71600002 -0.041427758 9.9228971e-39 300 273
-0.023852346 0.71600002 -0.041427758 9.8307029e-39 301 273
-0.022596961 0.71600002 -0.041427758 9.7385086e-39 302 273
-0.021371379 0.71700001 -0.041485619 9.6463144e-39 303 273
-0.020086186 0.71600002 -0.041427758 9.645597e-39 304 273
-0.0188308 0.71600002 -0.041427758 9.5534027e-39 305 273
-0.017575413 0.71600002 -0.041427758 9.2775375e-39 306 273
-0.016320027 0.71600002 -0.041427758 9.1853433e-39 307 273
-0.01506464 0.71600002 -0.041427758 9.1860607e-39 308 273
-0.013809253 0.71600002 -0.041427758 9.0938665e-39 309 273
-0.0125714 0.71700001 -0.041485619 9.0027485e-39 310 273
-0.01131426 0.71700001 -0.041485619 9.0027485e-39 311 273
-0.01005712 0.71700001 -0.041485619 8.9112717e-39 312 273
-0.0087999795 0.71700001 -0.041485619 8.727242e-39 313 273
-0.0075428397 0.71700001 -0.041485619 8.6354065e-39 314 273
-0.0063032326 0.71899998 -0.041601337 8.6354065e-39 315 273
-0.0050425865 0.71899998 -0.041601337 8.4517355e-39 316 273
-0.0037872 0.72000003 -0.041659199 8.4517355e-39 317 273
-0.0025248001 0.72000003 -0.041659199 8.3602587e-39 318 273
-0.0012659066 0.722 -0.041774917 8.3602587e-39 319 273
0 0.72299999 -0.041832779 8.4517355e-39 320 273
0.0012676599 0.72299999 -0.041832779 8.4517355e-39 321 273
0.0025423334 0.72500002 -0.041948501 8.5446472e-39 322 273
0.0038240198 0.727 -0.042064216 8.8215886e-39 323 273
0.0051057064 0.72799999 -0.042122077 8.456399e-39 324 273
0.0063821329 0.72799999 -0.042122077 8.3638461e-39 325 273
-0.043756187 0.73400003 -0.043756187 1.4556813e-38 286 274
-0.0422378 0.73000002 -0.043517731 1.4464618e-38 287 274
-0.040845651 0.72799999 -0.043398503 1.4094738e-38 288 274
-0.039569225 0.72799999 -0.043398503 1.1421065e-38 289 274
-0.038292799 0.72799999 -0.043398503 1.1221538e-38 290 274
-0.036965527 0.727 -0.043338891 9.4698223e-39 291 274
-0.035690852 0.727 -0.043338891 1.0571131e-38 292 274
-0.034321502 0.72500002 -0.043219667 1.0110155e-38 293 274
-0.032913569 0.722 -0.043040827 1.0384587e-38 294 274
-0.031647664 0.722 -0.043040827 1.0108362e-38 295 274
-0.0302976 0.72000003 -0.042921603 1.0383152e-38 296 274
-0.028994869 0.71899998 -0.042861983 1.0290598e-38 297 274
-0.027734226 0.71899998 -0.042861983 1.0015091e-38 298 274
-0.02639994 0.71700001 -0.042742759 9.9225384e-39 299 274
-0.0251428 0.71700001 -0.042742759 9.7381499e-39 300 274
-0.023852346 0.71600002 -0.042683143 9.7381499e-39 301 274
-0.022596961 0.71600002 -0.042683143 9.6459557e-39 302 274
-0.021371379 0.71700001 -0.042742759 9.5537615e-39 303 274
-0.020114239 0.71700001 -0.042742759 9.6452382e-39 304 274
-0.018857099 0.71700001 -0.042742759 9.6452382e-39 305 274
-0.017599959 0.71700001 -0.042742759 9.3697317e-39 306 274
